# .PCD v0.7 - Point Cloud Data file format
VERSION 0.7
FIELDS x y z intensity
SIZE 4 4 4 4
TYPE F F F F
COUNT 1 1 1 1
WIDTH 1435
HEIGHT 1
VIEWPOINT 0 0 0 1 0 0 0
POINTS 1435
DATA ascii
4.3580818 -4.0392528 0.52946657 0
4.3685617 -3.8639238 0.51951015 0
4.4025879 -3.7156923 0.51301903 0
4.4060769 -3.5466225 0.50352252 0
4.4951606 -2.6879246 0.59966558 0
4.5084844 -2.5565848 0.59323472 0
4.5202346 -2.4272749 0.58708477 0
4.5306559 -2.3000057 0.581231 0
4.5399961 -2.1747735 0.5756889 0
4.5485067 -2.051558 0.57047427 0
4.5564384 -1.9303228 0.5656029 0
4.5608802 -1.8097322 0.56069708 0
4.5846944 -1.698531 0.55857319 0
4.5907631 -1.5819286 0.55461514 0
4.5971432 -1.4670479 0.55105662 0
4.6166773 -1.3575591 0.54943198 0
4.6226444 -1.2449571 0.54650116 0
4.6395245 -1.1362456 0.54519892 0
4.6456175 -1.0255808 0.54292887 0
4.6529212 -0.91603553 0.54111671 0
4.6668291 -0.80834311 0.54038626 0
4.6750135 -0.70001465 0.53928447 0
4.6869388 -0.59255916 0.53891587 0
4.6963668 -0.48493111 0.53855002 0
4.7064786 -0.3774485 0.53855515 0
4.7174215 -0.26995343 0.53894675 0
4.7258306 -0.1621522 0.53933537 0
4.7384653 -0.054184131 0.54050201 0
4.7452207 0.05424634 0.54128146 0
4.7596159 0.16331913 0.54323578 0
4.7647052 0.27269956 0.54441142 0
4.7808213 0.38351983 0.54716122 0
4.7841635 0.49417189 0.54873574 0
4.8018517 0.6073789 0.55228412 0
4.8033009 0.7196157 0.55425781 0
4.8223047 0.83583033 0.55860293 0
4.8216519 0.94994754 0.56097388 0
4.8416128 1.069759 0.56610978 0
4.8629169 1.192112 0.57176733 0
4.8590493 1.3099785 0.57479 0
4.8805394 1.4368045 0.5812192 0
4.8737526 1.5572139 0.58462399 0
4.8948393 1.6889644 0.59180897 0
4.9163489 1.8240522 0.59948784 0
5.0109868 2.6965857 0.50569135 0
5.0269728 2.8570745 0.51397973 0
5.0412149 3.0216579 0.52259421 0
5.0534081 3.1903629 0.53152668 0
5.0632477 3.3632011 0.54076928 0
5.0707507 3.5403972 0.55034947 0
2.6890473 3.7722425 0.5330475 0
2.8040986 3.7490876 0.53850758 0
2.922785 3.726974 0.54460144 0
3.0425649 3.7021797 0.5508191 0
3.2016203 3.720439 0.56404477 0
3.3461237 3.7138422 0.57429653 0
3.5571644 3.7735903 0.59567767 0
5.0747914 3.7213519 0.5601697 0
2.5580673 3.865031 0.53367472 0
2.4370117 3.9754455 0.53721029 0
5.1210036 3.9420216 0.57543558 0
2.3611817 4.0605607 0.54138267 0
2.293885 4.165606 0.54833603 0
5.1185689 4.1330829 0.58595943 0
2.2420857 4.3082309 0.56025618 0
1.9495673 4.482182 0.56455505 0
2.1699359 4.418963 0.56813735 0
2.0931866 4.5273199 0.57585198 0
1.9052461 4.6816888 0.58403409 0
1.804073 4.7465515 0.5869692 0
1.7115526 4.8413243 0.59380782 0
1.3956046 5.5838056 0.51711667 0
4.2652588 -5.2392421 0.60305935 0
4.3348408 -4.209343 0.69412309 0
4.3498998 -4.0314956 0.68107855 0
4.3592138 -3.8554668 0.66806573 0
4.3934484 -3.7078042 0.65974361 0
4.3973708 -3.5394561 0.64757019 0
4.4250059 -3.3958862 0.63967735 0
4.4234443 -3.2343857 0.62820214 0
4.4455924 -3.0953784 0.62081271 0
4.4628325 -2.9565747 0.61331111 0
4.4800205 -2.8212674 0.60636246 0
4.5374966 -2.046483 0.69717073 0
4.5455794 -1.9256219 0.69123429 0
4.5533309 -1.8066713 0.6857363 0
4.5772581 -1.6957164 0.6831578 0
4.5836143 -1.5794117 0.67835367 0
4.5902658 -1.4648057 0.67403585 0
4.6099048 -1.3555247 0.6720652 0
4.6161175 -1.2431616 0.66851163 0
4.633091 -1.1346362 0.66693324 0
4.6393991 -1.0241785 0.66418391 0
4.6468868 -0.9148221 0.66199148 0
4.6608639 -0.80728787 0.66110885 0
4.6691899 -0.69912404 0.65978044 0
4.6811657 -0.5918138 0.65933812 0
4.6906862 -0.48433211 0.65890455 0
4.7008257 -0.37698555 0.65891653 0
4.7118106 -0.26962557 0.65940428 0
4.720222 -0.16195571 0.65988243 0
4.7328424 -0.054118484 0.66131234 0
4.7395759 0.054180454 0.66226572 0
4.7538991 0.16311887 0.66465324 0
4.7589421 0.27236286 0.66608846 0
4.7749295 0.38303736 0.66944307 0
4.7782006 0.49354315 0.67136312 0
4.7957044 0.6065852 0.67568862 0
4.7970576 0.71866101 0.67809391 0
4.815825 0.83468401 0.68338829 0
4.8150549 0.94862098 0.68627661 0
4.8347297 1.0682069 0.69253254 0
4.8557167 1.1903108 0.69942307 0
4.9047589 1.949142 0.6035096 0
4.9276586 2.0910072 0.61227387 0
4.9472241 2.2353139 0.62112802 0
4.9662261 2.3834078 0.63044184 0
4.9843769 2.5353827 0.64020544 0
5.0013819 2.6913142 0.65040827 0
5.0169468 2.8512635 0.66104019 0
5.0307698 3.0152738 0.67209089 0
5.0425463 3.1833706 0.68354976 0
5.0519772 3.3555677 0.69540703 0
2.6973593 3.7843416 0.65503949 0
2.826431 3.7800217 0.66506279 0
2.9352531 3.7434213 0.67006093 0
3.0564897 3.7196844 0.67793542 0
3.217777 3.7398033 0.69456816 0
2.6084075 3.8441489 0.65506452 0
3.7646732 3.8170841 0.61572254 0
2.5333612 3.9264967 0.65919346 0
2.4651425 4.0232472 0.66592193 0
2.3925788 4.1168804 0.67231828 0
2.3175647 4.2105165 0.67890966 0
2.2714291 4.3671784 0.6956712 0
5.1587558 4.3683038 0.60224831 0
1.6185082 4.9440231 0.60181606 0
1.516866 5.02843 0.60784012 0
1.4309875 5.1841702 0.62261003 0
1.3554161 5.4109344 0.64595133 0
-0.0091856495 -21.16221 0.79997069 0
2.4445047 -20.926628 0.79603946 0
0.47997853 -20.89308 0.7899822 0
0.96611881 -20.843067 0.78865153 0
2.9016092 -20.639738 0.78745669 0
3.396714 -20.656708 0.79080623 0
3.8842738 -20.608116 0.79210681 0
4.7730522 -10.606838 0.73998386 0
4.8720403 -10.180635 0.71798164 0
5.0657921 -9.9808283 0.71192032 0
5.2432342 -9.7593498 0.70455295 0
5.5549212 -9.7895298 0.71565676 0
5.8377447 -9.7542648 0.72263128 0
4.2554808 -5.2269502 0.77561659 0
4.2558928 -4.9840722 0.75392002 0
4.296968 -4.8008862 0.74092782 0
4.306335 -4.5907731 0.72358841 0
4.3186903 -4.3937807 0.70798999 0
4.3882151 -3.5319195 0.7918117 0
4.4161673 -3.3889501 0.78221476 0
4.4151855 -3.2282109 0.76826447 0
4.4376884 -3.0897512 0.75928319 0
4.4539089 -2.950531 0.74992585 0
4.4714341 -2.8157396 0.74147928 0
4.4869184 -2.6828868 0.73333991 0
4.5005956 -2.5520124 0.72552526 0
4.5127044 -2.423142 0.71805352 0
4.5234852 -2.2962856 0.71094298 0
4.533186 -2.1714396 0.70421249 0
4.5841169 -1.4628009 0.79767036 0
4.6038952 -1.3537195 0.79536474 0
4.610414 -1.2415923 0.7912091 0
4.6275134 -1.1332409 0.78936428 0
4.6340866 -1.0229807 0.78615367 0
4.6347919 -0.91238993 0.78239471 0
4.6487837 -0.80515081 0.78135931 0
4.6571789 -0.69728726 0.77980286 0
4.6691608 -0.59026378 0.77928591 0
4.6787195 -0.48307028 0.7787835 0
4.6888571 -0.37600541 0.77880186 0
4.6998458 -0.26892647 0.77938455 0
4.7082458 -0.16153613 0.77995193 0
4.7208352 -0.053978302 0.7816444 0
4.7275453 0.054040045 0.78277159 0
4.7418032 0.16269512 0.78559202 0
4.746809 0.27165392 0.78728628 0
4.7626944 0.3820354 0.79124576 0
4.7659183 0.49224806 0.79351127 0
4.7832847 0.60498172 0.7986142 0
4.8517027 1.3079573 0.70310414 0
4.8728356 1.4344904 0.71093327 0
4.8658895 1.5546502 0.71507925 0
4.8865867 1.686059 0.72382808 0
4.9076848 1.8207726 0.73317772 0
4.8959241 1.9455599 0.7380746 0
4.9155145 2.0857503 0.74830544 0
4.9348159 2.2295947 0.75910944 0
4.9578815 2.3793228 0.77115732 0
4.9755321 2.5307939 0.78304273 0
4.9920321 2.686183 0.79546326 0
5.0606489 3.5332062 0.70792031 0
3.4123909 3.7895992 0.71782744 0
5.0642571 3.7134757 0.7205168 0
3.7033129 3.9330003 0.76043266 0
5.1097412 3.9331834 0.74009937 0
5.1069012 4.1234789 0.75359976 0
5.1463895 4.3576307 0.77449661 0
2.1981604 4.4791451 0.70543051 0
2.0974743 4.5370469 0.70699102 0
2.0109797 4.6308055 0.71439135 0
1.8205847 4.7924762 0.72603732 0
1.9224689 4.7262921 0.72229558 0
1.7303075 4.8975792 0.73591489 0
1.6377646 5.0066156 0.74661803 0
1.5408987 5.1135712 0.7572636 0
1.460757 5.2999048 0.77978134 0
2.1988897 -23.725191 0.8997283 0
1.5138538 -21.760759 0.82417482 0
5.6838765 -21.718357 0.84740913 0
4.4428968 -20.891939 0.80660409 0
4.9400382 -20.830547 0.80836803 0
4.296814 -4.5803885 0.88477707 0
4.3089356 -4.3836265 0.86563766 0
4.3249593 -4.1995268 0.84864324 0
4.3405094 -4.022593 0.83277649 0
4.3521438 -3.8490708 0.81729072 0
4.3837585 -3.699441 0.80661631 0
4.4295125 -3.083931 0.89821005 0
4.4448199 -2.9443748 0.88695019 0
4.4627547 -2.8101523 0.87703919 0
4.4786601 -2.677839 0.86749047 0
4.4927669 -2.5474749 0.85832483 0
4.5053086 -2.4190831 0.84956306 0
4.5165267 -2.2926755 0.84122723 0
4.5206881 -2.1653216 0.83222157 0
4.5297427 -2.0429094 0.82477033 0
4.5382099 -1.9224315 0.81781244 0
4.5463357 -1.8038349 0.81137049 0
4.570415 -1.693126 0.80835021 0
4.577127 -1.5771278 0.80272424 0
4.7845831 0.7167533 0.8014515 0
4.8031783 0.83244687 0.80769557 0
4.8023443 0.94606513 0.81110168 0
4.8287959 1.066869 0.81967998 0
4.8494158 1.1887347 0.82778561 0
4.8452249 1.3061751 0.83211541 0
4.8659425 1.4324198 0.84132361 0
4.8588037 1.5523399 0.84619951 0
4.8790445 1.6834036 0.85648811 0
4.899662 1.8177357 0.86748284 0
4.8876901 1.9422212 0.87324113 0
4.906774 2.0819664 0.88527179 0
4.9255519 2.2253249 0.89797616 0
5.0070887 2.8455498 0.80840641 0
5.0204039 3.0089381 0.82185978 0
5.0316768 3.1763732 0.83581066 0
5.0406094 3.3478687 0.85024697 0
5.0503306 3.5258605 0.86575234 0
2.9766762 3.7980645 0.80555856 0
3.0960064 3.7693598 0.81404543 0
3.2570653 3.7868924 0.83341783 0
5.053422 3.7053745 0.88108712 0
2.8910332 3.8695064 0.80664968 0
3.4565487 3.8400803 0.86197764 0
2.6860766 3.9630587 0.80010569 0
2.6189535 4.0644674 0.80842 0
2.855804 4.0149727 0.8232199 0
2.4350932 4.1931419 0.81138486 0
2.5431154 4.1557436 0.8149538 0
2.3672493 4.3047471 0.82243264 0
2.203598 4.4907393 0.83815503 0
2.3160894 4.4568958 0.8412593 0
2.1160645 4.5792193 0.84559697 0
2.0271943 4.6700463 0.85376716 0
1.9319881 4.7509451 0.860452 0
1.8294977 4.817266 0.86487734 0
1.741873 4.9322696 0.87831366 0
1.3838419 5.5332079 0.80927736 0
7.7425957 -24.85063 0.98169363 0
7.0956664 -24.79295 0.97274047 0
8.1388807 -24.120275 0.96010816 0
8.5144396 -23.410593 0.93953395 0
9.0139723 -23.092066 0.93487632 0
4.2453504 -5.2142153 0.94831115 0
4.2456551 -4.9718013 0.92172885 0
4.2891097 -4.791903 0.90635896 0
4.3303394 -4.0129519 0.98473573 0
4.3425884 -3.8404264 0.96655279 0
4.377687 -3.6942003 0.95470554 0
4.378551 -3.5239644 0.93638575 0
4.4068842 -3.3816655 0.92512017 0
4.4065876 -3.2217824 0.90874809 0
4.484899 -2.5429146 0.9918021 0
4.4979463 -2.4150426 0.98178715 0
4.5096726 -2.2891192 0.97226167 0
4.5127687 -2.1614447 0.9616155 0
4.5222869 -2.0394728 0.95310146 0
4.531209 -1.9194007 0.94515377 0
4.5397778 -1.8011758 0.93779832 0
4.564043 -1.690714 0.93435061 0
4.5711775 -1.5750332 0.92793137 0
4.5785666 -1.4609913 0.9221679 0
4.598516 -1.3521036 0.91953987 0
4.59692 -1.2378799 0.91309512 0
4.6140518 -1.1298733 0.91098112 0
4.6207604 -1.0199757 0.90730351 0
4.6285973 -0.91114432 0.90437758 0
4.6426883 -0.8040725 0.90320313 0
4.6512809 -0.69638532 0.90144342 0
4.6633358 -0.58951169 0.90086257 0
4.6730299 -0.4824703 0.90031016 0
4.6832104 -0.375543 0.90034235 0
4.6942658 -0.2686004 0.90103221 0
4.7026772 -0.16134103 0.90169287 0
4.715261 -0.053913221 0.90365314 0
4.7219496 0.053974733 0.90495479 0
4.7361279 0.16249631 0.90820611 0
4.7410784 0.27131909 0.91015702 0
4.7568107 0.38155359 0.91471225 0
4.7599463 0.49161839 0.91731709 0
4.7770877 0.60418159 0.92318141 0
4.7782655 0.71578723 0.92644066 0
4.7965679 0.83127743 0.93361157 0
4.7955847 0.94470584 0.93752229 0
4.8147025 1.0636909 0.94599038 0
4.8350711 1.1851461 0.95531476 0
4.8307915 1.3022043 0.96029526 0
4.8597198 1.4305505 0.97261161 0
4.852356 1.5502378 0.97820503 0
4.8720798 1.6809516 0.99000698 0
4.9437485 2.3724043 0.91134042 0
4.9669266 2.5263293 0.92645621 0
4.9828396 2.6811378 0.94105917 0
4.9973049 2.839879 0.95627701 0
5.0100284 3.0025964 0.97209537 0
5.0207138 3.1693158 0.98849934 0
3.1560318 3.8448167 0.96103716 0
3.3463047 3.8938501 0.99182349 0
3.0699563 3.9211149 0.96248978 0
5.0980492 3.9240086 0.90492803 0
3.0321708 4.0650053 0.9806273 0
5.0947227 4.1134543 0.92136514 0
5.1333885 4.3464098 0.94680929 0
2.2510798 4.5919828 0.99196571 0
2.354862 4.5347853 0.99073237 0
5.1246648 4.5479188 0.96477634 0
2.149513 4.6550994 0.99496329 0
1.6690722 5.1083808 0.90275395 0
1.5734911 5.2290373 0.91765273 0
1.5113735 5.496685 0.95834488 0
4.2386222 -4.9633722 1.0907805 0
4.2791882 -4.7805605 1.071858 0
4.2865849 -4.5692306 1.0462416 0
4.2983799 -4.3726397 1.0235175 0
4.3179893 -4.1926026 1.0042641 0
4.374023 -3.5202372 1.0828636 0
4.3970814 -3.3739729 1.068529 0
4.3975682 -3.2150388 1.0497954 0
4.4209809 -3.0778573 1.0377406 0
4.4419441 -2.9424272 1.0260582 0
4.4538956 -2.8044493 1.013202 0
4.4702916 -2.672724 1.0022815 0
4.5049524 -2.1576183 1.0918827 0
4.5150003 -2.0361142 1.0823425 0
4.5244427 -1.9164714 1.0734407 0
4.5335183 -1.7986379 1.0652058 0
4.5580039 -1.688428 1.0613475 0
4.5656204 -1.5730767 1.0541664 0
4.5635948 -1.45611 1.0454236 0
4.5835853 -1.3476183 1.0424672 0
4.5906487 -1.2361544 1.0371442 0
4.6079431 -1.1283451 1.034784 0
4.6149879 -1.0186739 1.0306821 0
4.6231213 -0.91004318 1.0274255 0
4.6373324 -0.80312502 1.0261213 0
4.6461577 -0.69560182 1.024175 0
4.6583037 -0.588862 1.0235381 0
4.6681576 -0.48195657 1.022948 0
4.6783943 -0.37514856 1.0229994 0
4.6895332 -0.26832387 1.0238049 0
4.6979632 -0.16117588 1.0245622 0
4.7105494 -0.053858209 1.0267943 0
4.7172179 0.053919505 1.0282714 0
4.7313137 0.16232768 1.0319533 0
4.7362061 0.27103439 1.0341595 0
4.7517719 0.38114095 1.0393057 0
4.7548094 0.49107674 1.0422461 0
4.7717032 0.60348642 1.0488625 0
4.7727461 0.71494323 1.0525379 0
4.7907233 0.83024353 1.0606219 0
4.7895722 0.94349688 1.0650294 0
4.8082929 1.0622456 1.0745707 0
4.8282175 1.1834317 1.0850742 0
4.8237228 1.3002596 1.0906837 0
4.8921499 1.8148923 1.0026183 0
4.879931 1.9390754 1.009223 0
4.8984365 2.078357 1.0230216 0
4.9166164 2.2212062 1.037593 0
4.9342003 2.3677301 1.0529212 0
4.9584436 2.5219283 1.0706419 0
4.97369 2.6761167 1.087388 0
5.0290651 3.3400497 1.0054748 0
5.0397115 3.518301 1.0240234 0
5.0422044 3.6969874 1.0420537 0
3.510947 3.9022686 1.0138816 0
5.0858541 3.914439 1.0700878 0
5.0819645 4.102952 1.0894172 0
2.9582314 4.3797221 1.0229694 0
3.0988252 4.3687129 1.0364181 0
2.7220368 4.4597783 1.0119748 0
2.8450522 4.4289284 1.0192183 0
2.5091453 4.5738635 1.011193 0
2.611438 4.5094671 1.0096662 0
2.0547931 4.7368383 1.002355 0
1.8469315 4.8657556 1.0111898 0
1.954144 4.8083243 1.0080053 0
1.7711183 5.0199904 1.0347223 0
1.5893835 5.2853403 1.0736871 0
1.7050774 5.2254152 1.0688704 0
4.1965423 -5.4072914 1.1447493 0
4.234807 -5.2009611 1.1213174 0
4.2918272 -4.365819 1.1831059 0
4.3072681 -4.181952 1.1597006 0
4.3244424 -4.0073609 1.1384368 0
4.3322783 -3.8310988 1.1162477 0
4.3677979 -3.6856651 1.1026862 0
4.3880363 -3.2079122 1.1915396 0
4.4119968 -3.0714617 1.1780125 0
4.433526 -2.9367259 1.1649064 0
4.4447536 -2.7985642 1.1501173 0
4.4617071 -2.6674771 1.1378675 0
4.4768796 -2.5382669 1.1261154 0
4.4905 -2.4109559 1.1148881 0
4.4940619 -2.2810204 1.1020325 0
4.5274067 -1.79616 1.1937659 0
4.5521417 -1.686209 1.189515 0
4.5490437 -1.5672406 1.1786404 0
4.5571132 -1.4539968 1.171499 0
4.5773115 -1.3457338 1.1682459 0
4.5848107 -1.2345483 1.1623925 0
4.6022921 -1.1269314 1.1597996 0
4.6097169 -1.0174854 1.1552989 0
4.6181874 -0.90905106 1.1517345 0
4.6325388 -0.80227703 1.150311 0
4.6416278 -0.69490916 1.1481968 0
4.6538796 -0.58829081 1.147512 0
4.663919 -0.48150963 1.1468987 0
4.6619906 -0.37380522 1.1439234 0
4.6731429 -0.26736614 1.1448377 0
4.6815581 -0.16060114 1.145689 0
4.694108 -0.053666256 1.1481885 0
4.7007465 0.053727258 1.1498395 0
4.714757 0.16174768 1.15395 0
4.7196021 0.27006423 1.1564109 0
4.7350335 0.37977025 1.1621486 0
4.7503176 0.49060312 1.1685035 0
4.766943 0.60287189 1.1758621 0
4.767839 0.71419281 1.1799479 0
4.7854609 0.82931262 1.1889302 0
4.7841244 0.94240141 1.1938258 0
4.8436594 1.4257259 1.1026117 0
4.8361921 1.5449679 1.1089267 0
4.8655381 1.6786485 1.1245891 0
4.8849993 1.8121855 1.1387857 0
4.8724995 1.9360621 1.1462203 0
4.8903594 2.0748603 1.1617526 0
4.9078727 2.2171762 1.1781546 0
4.9247718 2.3631144 1.1954085 0
4.9874854 2.834188 1.1048403 0
4.9995379 2.9961846 1.1229817 0
5.0095563 3.162133 1.141796 0
5.0239654 3.3365958 1.1628456 0
5.0286956 3.5104589 1.1829011 0
3.4136755 4.1686954 1.1848153 0
3.2959094 4.2191811 1.1776475 0
3.2403822 4.3534126 1.1942344 0
5.1238532 4.3381796 1.1202645 0
5.1117206 4.5362086 1.1407648 0
2.3417561 4.7853279 1.1756532 0
2.4571352 4.7402411 1.1777824 0
1.9834269 4.884161 1.164616 0
2.1020367 4.851172 1.1675794 0
2.2245343 4.8252892 1.1729608 0
1.8805387 4.959228 1.1722357 0
1.7921233 5.0829945 1.1917293 0
1.5274525 5.559195 1.1220044 0
4.2756286 -4.5572805 1.2081174 0
4.3571281 -3.6764565 1.2512538 0
4.3642092 -3.5121589 1.2289983 0
4.3938355 -3.3714261 1.2145842 0
4.4856162 -2.2766385 1.2343891 0
4.4971042 -2.1537762 1.2231859 0
4.5077429 -2.0327692 1.21266 0
4.517766 -1.9135809 1.2028428 0
4.6145873 -0.79910123 1.2721596 0
4.6237874 -0.69218087 1.2698617 0
4.636054 -0.58598924 1.2691213 0
4.6461587 -0.47963688 1.2684721 0
4.6564631 -0.37335253 1.2685683 0
4.6677165 -0.26704907 1.2696145 0
4.6761565 -0.16041189 1.2705684 0
4.8024096 1.060919 1.204421 0
4.8218484 1.1818384 1.2160815 0
4.8171124 1.2984409 1.2223079 0
4.8364959 1.4235741 1.2355455 0
4.8287654 1.5425465 1.2425535 0
4.8475451 1.6723139 1.2573382 0
4.940784 2.5127661 1.2134964 0
4.9644551 2.6710484 1.2346301 0
4.9775062 2.8284042 1.2542726 0
4.9888139 2.98963 1.2746919 0
4.9980898 3.1547518 1.2958695 0
5.0305161 3.6882489 1.2035806 0
5.073071 3.9044077 1.2357359 0
3.5896494 4.1855106 1.212323 0
3.2326608 4.5635238 1.2312989 0
2.9923451 4.6663575 1.2212577 0
3.1033621 4.6019144 1.2224228 0
2.8133233 4.8716063 1.2403315 0
2.9235494 4.8022008 1.2391287 0
2.6827929 4.9031987 1.2327005 0
1.7373642 5.3303633 1.2402061 0
1.6430507 5.4754686 1.265125 0
2.5488513 -21.857014 1.3995645 0
4.5671959 -21.48955 1.3967375 0
2.9836345 -21.243488 1.3643483 0
3.4215834 -20.812418 1.341367 0
3.920711 -20.806412 1.3463479 0
3.4676607 4.4457464 1.3923594 0
2.1934795 5.0724726 1.3698993 0
2.3373265 5.0811639 1.3859345 0
1.9407462 5.1266856 1.359834 0
2.1112671 5.21524 1.3952837 0
5.1974692 -21.937906 1.4330975 0
3.4187641 4.6005011 1.4160671 0
3.3766365 4.7730937 1.4451275 0
3.2912235 4.8895264 1.4573612 0
3.1567187 4.9313207 1.4481642 0
2.4824932 5.0854149 1.401844 0
2.6110096 5.0493574 1.4076784 0
2.7489018 5.0285792 1.4187193 0
3.0808291 5.0694604 1.4678062 0
2.9725726 5.1572652 1.4733709 0
1.8942409 5.3892946 1.4177616 0
2.1571751 5.3341327 1.5845137 0
2.0587423 5.4548721 1.6062694 0
2.5370414 -21.751715 1.9603152 0
2.9934466 -21.31571 1.9266766 0
3.4689453 -21.108955 1.9146136 0
3.9736142 -21.094318 1.9209549 0
-18.528345 1.305759 -0.79650116 0
-2.5298018 -9.258503 -0.04575514 0
-1.9024816 -7.225318 -0.025497593 0
-2.0333967 -7.0389104 -0.030310504 0
-2.2333622 -7.002883 -0.037480965 0
-2.4118657 -6.9204965 -0.044002667 0
-2.4380603 -6.5641737 -0.045459308 0
-5.5469055 -7.5449181 -0.16039354 0
-2.3740346 -6.0821214 -0.043884151 0
-7.756515 -4.0093913 -0.26864731 0
-8.2252445 -3.9598105 -0.28881833 0
-8.5268898 -3.8173459 -0.30273768 0
-8.7515478 -3.8756802 -0.31179065 0
-9.0759935 -3.7247221 -0.32684329 0
-9.6641254 -3.6602921 -0.35246921 0
-2.3797193 -5.751945 -0.044671036 0
-2.380574 -5.4380417 -0.045306116 0
0.55127192 -4.1141415 0.05657522 0
-2.3771837 -5.1395626 -0.045806661 0
-2.3700986 -4.8557158 -0.046189137 0
-2.3598354 -4.5857601 -0.046469286 0
-2.3468783 -4.3289948 -0.046662077 0
2.3456621 -2.2979643 0.10983679 0
2.4041517 -2.2551675 0.11131151 0
2.4543114 -2.1914423 0.11254521 0
2.5102561 -2.1492643 0.11391196 0
2.5580795 -2.0891619 0.1150458 0
-2.3316841 -4.0847621 -0.046781875 0
2.6117973 -2.0475297 0.11631498 0
2.6577916 -1.9907686 0.11736424 0
2.7318733 -1.9227064 0.11903367 0
2.8260694 -1.8294123 0.12108056 0
2.8964741 -1.7631425 0.12256393 0
2.9630618 -1.6939734 0.12390602 0
3.0522876 -1.6062145 0.12564676 0
3.1176524 -1.5403098 0.12686859 0
3.160244 -1.4959698 0.12763473 0
3.2049053 -1.4546146 0.12843239 0
3.2689171 -1.3896408 0.12951921 0
3.3337083 -1.3259016 0.13058619 0
3.3766284 -1.2831883 0.13126488 0
3.4198778 -1.2407229 0.13193117 0
3.4634314 -1.1983564 0.13258392 0
1.1533389 -1.4591234 0.0760241 0
1.2322814 -1.4071867 0.078540973 0
1.3072245 -1.355726 0.080901496 0
2.6525698 -0.40930018 0.11360899 0
2.7051239 -0.32050887 0.11411241 0
2.771462 -0.20172355 0.1145654 0
2.8129122 -0.12795347 0.1147681 0
1.3672129 -0.70264781 0.050896566 0
1.551564 -0.59167975 0.059602398 0
1.7822673 -0.45229995 0.068700947 0
2.8375385 -0.083391607 0.11484459 0
2.8673348 -0.022358507 0.11484578 0
2.8312984 0.062305957 0.11351312 0
1.075927 -0.54712796 0.043205943 0
2.7892461 0.14295137 0.11207616 0
3.4265218 0.43412313 0.11874862 0
0.65534043 -0.64152586 0.020458894 0
1.0409486 -0.49443257 0.042797286 0
2.7249541 0.25293416 0.10993291 0
2.7600744 0.19897491 0.11105391 0
3.3773651 0.50147069 0.11708802 0
0.60128129 -0.57400101 0.018708695 0
0.99908799 -0.43317047 0.042148665 0
2.6847672 0.33258143 0.10841915 0
3.321286 0.58650327 0.11503853 0
0.54867911 -0.50765282 0.016836921 0
2.6359715 0.42035756 0.10661132 0
3.2669291 0.6665045 0.11303206 0
3.2095096 0.76162636 0.11068275 0
3.1461549 0.85064435 0.10826005 0
0.3088789 -0.21273658 0.0056903716 0
3.0797668 0.95286685 0.10547301 0
3.114912 0.90304208 0.10689142 0
0.2655586 -0.16078907 0.0032276418 0
3.0367413 1.0182552 0.10362047 0
0.20374417 -0.078984171 -0.0004602652 0
2.9839201 1.0973709 0.10129687 0
0.18064928 -0.010478616 -0.0018513873 0
2.9231949 1.1902738 0.098494887 0
0.15612006 0.08787173 -0.0035174731 0
2.8627086 1.2808641 0.095635653 0
0.14040303 0.15301871 -0.0047307033 0
2.8133206 1.3558714 0.093201883 0
2.7541771 1.4457824 0.090185732 0
2.7834475 1.4005615 0.091708809 0
2.138768 1.3017318 0.08164794 0
2.7038546 1.5206722 0.087570816 0
0.16931534 0.56413388 -0.0064147897 0
2.1008356 1.369205 0.079154864 0
2.6430757 1.6122515 0.084291831 0
0.17823899 0.61107528 -0.006521048 0
0.18931633 0.67304432 -0.0068265628 0
2.0449436 1.4645393 0.075473994 0
2.5912352 1.6902511 0.081417255 0
-0.24026418 0.63752693 0.0096309818 0
0.48501605 0.89726222 0.0083873952 0
1.9918716 1.5585382 0.071778998 0
2.5604889 1.7392526 0.079610787 0
-0.21626806 0.69720304 0.0097871944 0
-0.19339573 0.75588882 0.0098827612 0
1.8624113 1.6292959 0.066700429 0
1.9454324 1.6205626 0.069009632 0
-0.17871213 0.79445815 0.0099128969 0
0.7676369 1.2478077 0.014234131 0
1.649008 1.6487405 0.060479116 0
1.7545767 1.6392918 0.063621834 0
-0.11317432 0.96371126 0.0099316202 0
-0.091327548 1.0189927 0.0099009611 0
1.5834382 1.6548045 0.058457028 0
-0.063114047 1.0924504 0.0097737052 0
0.25463706 1.3498487 0.018038148 0
1.5880158 2.5885081 0.032693941 0
0.55146635 2.1909702 0.0094377752 0
0.60478085 2.2343438 0.01025019 0
0.71256381 2.3251648 0.0117133 0
0.76693189 2.3744502 0.012310442 0
1.5155962 2.6307273 0.029395618 0
0.80649483 2.4014025 0.012961677 0
0.86327255 2.4526308 0.01352921 0
0.94276512 2.5194454 0.014403129 0
1.0257596 2.5884678 0.015270703 0
1.3356231 2.725462 0.021341311 0
1.4148256 2.6840544 0.024901506 0
1.1128616 2.6597245 0.016147137 0
1.1803888 2.7195148 0.016659554 0
1.2531309 2.7646706 0.017698806 0
4.2212887 -5.459969 0.32735789 0
4.2852321 -5.2385364 0.32415885 0
4.2756877 -4.8903327 0.315366 0
4.3330722 -4.6974401 0.31271273 0
4.3238583 -4.4009476 0.30525905 0
4.3760228 -4.2305074 0.30303621 0
4.3678312 -3.9750564 0.29667246 0
4.4157596 -3.822473 0.29479268 0
4.4090052 -3.5999415 0.28932616 0
4.4534211 -3.4616766 0.28772134 0
4.4483175 -3.2657616 0.28299972 0
4.4457674 -3.084738 0.27874625 0
4.4863653 -2.9647799 0.27751601 0
4.4853678 -2.8026793 0.27381113 0
4.4865513 -2.6512485 0.27045691 0
4.5239754 -2.54422 0.26948562 0
4.5264516 -2.4063694 0.26653808 0
4.5307198 -2.2762191 0.26385474 0
4.536593 -2.1528425 0.2614066 0
4.5704799 -2.057961 0.26067361 0
4.5770879 -1.943162 0.25848949 0
4.5849247 -1.8332613 0.25648183 0
4.5938249 -1.7276664 0.25463051 0
4.6036301 -1.6258538 0.25291735 0
4.6141882 -1.52736 0.25132591 0
4.6253552 -1.4317744 0.24984123 0
4.6214647 -1.3294356 0.2476498 0
4.634614 -1.2397709 0.24640842 0
4.6478987 -1.1519191 0.24523087 0
4.6565628 -1.0176363 0.2430117 0
4.6679783 -0.88824129 0.24104053 0
4.6738825 -0.80318499 0.23970985 0
4.6843176 -0.67890811 0.23788203 0
4.693635 -0.55652487 0.2360864 0
4.7074051 -0.43799984 0.23459375 0
4.7192783 -0.32028174 0.2330803 0
4.7274132 -0.20322335 0.23147807 0
4.7393546 -0.088079691 0.23010573 0
4.7500038 0.02647686 0.22874232 0
4.7600298 0.14066589 0.22740102 0
4.7698288 0.25458986 0.22610679 0
4.7799029 0.36850995 0.22486603 0
4.7870708 0.44460166 0.22408336 0
4.7947812 0.5209347 0.22334078 0
4.8032002 0.59763366 0.22264352 0
4.8062649 0.67456162 0.22174291 0
4.8201666 0.79138321 0.22080013 0
4.8264589 0.90876663 0.2195784 0
4.837553 1.0284293 0.2185801 0
4.8500166 1.1502559 0.21765545 0
4.8641815 1.2341133 0.21727829 0
4.8630104 1.3158512 0.21631697 0
4.8790011 1.4029058 0.21602312 0
4.8768139 1.4865849 0.21504337 0
4.8948236 1.5775628 0.21483517 0
4.8916321 1.6635767 0.21383536 0
4.9117894 1.759277 0.21371257 0
4.9075546 1.8480563 0.21268913 0
4.9299126 1.9493477 0.21264866 0
4.92454 2.0413566 0.21159616 0
4.94907 2.1491747 0.2116318 0
4.9424057 2.2449081 0.21054275 0
4.9689865 2.3602519 0.21064517 0
4.9608116 2.4602318 0.20950997 0
4.9892225 2.5841603 0.20966646 0
4.9792495 2.6889331 0.20847341 0
5.009171 2.8225648 0.20866805 0
4.9970403 2.9326987 0.2074033 0
5.0280414 3.0772085 0.20761664 0
5.0606537 3.2294044 0.20786846 0
5.044858 3.3499155 0.20647353 0
3.4247053 2.7486768 0.14812341 0
4.9572783 3.4139957 0.20268545 0
3.2681389 2.7698941 0.14223011 0
3.3449104 2.7589636 0.14511304 0
4.877924 3.4837022 0.19920883 0
3.1922877 2.834877 0.13917276 0
4.7887454 3.5434847 0.19544277 0
3.1325159 2.9245672 0.13663487 0
4.7016182 3.6036229 0.19178165 0
3.0907383 2.9843416 0.13489787 0
4.6222887 3.670269 0.18840937 0
3.0169206 3.0601909 0.1319823 0
4.5369148 3.7299323 0.18487416 0
2.9465003 3.1458607 0.12919004 0
4.4526396 3.7897573 0.18140773 0
2.8388155 3.2424786 0.12511162 0
2.8919477 3.19186 0.12712394 0
2.7986295 3.3239012 0.12347132 0
2.538801 3.3426306 0.11458318 0
2.6489365 3.3360648 0.11831626 0
2.7254891 3.3353724 0.12092665 0
2.2411087 3.3061149 0.10483672 0
2.3466148 3.3089738 0.10827864 0
2.4311457 3.3504763 0.11096839 0
1.9369354 3.3069568 0.095126435 0
2.0353718 3.2982621 0.098247953 0
2.1369705 3.3010569 0.10148126 0
1.8062699 3.3177714 0.091050446 0
1.8715427 3.3124135 0.093077466 0
1.7459265 3.3846049 0.089069247 0
1.6870415 3.5294852 0.086995721 0
1.6192728 3.6038156 0.084812149 0
1.5485442 3.7231355 0.082471676 0
0.038742706 3.2107472 0.043360498 0
0.089501426 3.2680693 0.044384882 0
1.4720873 3.8556383 0.079956129 0
0.14738616 3.3138094 0.045638893 0
0.22922167 3.397114 0.047392026 0
0.3107309 3.488523 0.049153313 0
0.37081087 3.5404229 0.050524257 0
0.45423985 3.6457834 0.052377917 0
0.54099828 3.7564957 0.054345757 0
0.60755742 3.811017 0.055961475 0
0.66684484 3.9008985 0.057322938 0
0.73733991 3.9568877 0.059083819 0
0.80154061 4.052856 0.060607992 0
0.8764959 4.1103687 0.062531866 0
0.94652182 4.2127228 0.064247914 0
1.0201448 4.3200521 0.066077262 0
1.1033486 4.3807616 0.068295166 0
1.1844407 4.4949241 0.070370272 0
1.2702055 4.6144123 0.072593734 0
1.3633888 4.6783133 0.07516706 0
4.9292579 -10.2247 0.46923271 0
5.5697374 -9.6975212 0.47760111 0
5.0838232 -9.8635139 0.46536979 0
5.3190823 -9.760108 0.47068527 0
5.8009887 -9.5849905 0.48269665 0
4.4038515 -3.5962787 0.41915429 0
4.4483309 -3.4581316 0.41532487 0
4.4433804 -3.2623992 0.40649623 0
4.4409623 -3.081532 0.3985461 0
4.4816027 -2.9616604 0.39560631 0
4.4807129 -2.7996879 0.38873458 0
4.481988 -2.6483688 0.38251838 0
4.5194364 -2.5414045 0.3802197 0
4.521986 -2.4036474 0.37480727 0
4.5263157 -2.2735798 0.36988935 0
4.5322399 -2.1502776 0.36541346 0
4.5661359 -2.0554457 0.36373737 0
4.5727816 -1.9407099 0.35979736 0
4.5806494 -1.8308687 0.35619298 0
4.5895739 -1.725328 0.35288855 0
4.5993967 -1.6235669 0.34985235 0
4.6099672 -1.525121 0.34705552 0
4.6211424 -1.4295814 0.3444722 0
4.6172667 -1.3272907 0.34081179 0
4.6313915 -1.2382226 0.33877647 0
4.6446447 -1.1503676 0.33679956 0
4.6532412 -1.0160747 0.33319196 0
4.6645918 -0.88667816 0.33005121 0
4.6704464 -0.80162305 0.32797834 0
4.6809015 -0.67738962 0.32521141 0
4.6903648 -0.55509293 0.32257199 0
4.704278 -0.43664074 0.32049444 0
4.7162924 -0.31898594 0.31844893 0
4.7240353 -0.20186567 0.31630415 0
4.7355032 -0.08665967 0.31458366 0
4.7462082 0.027837515 0.3129954 0
4.7562852 0.14197218 0.31150657 0
4.7661343 0.25584698 0.3101747 0
4.7762556 0.36972284 0.30899504 0
4.7834511 0.44578832 0.30832565 0
4.7911859 0.52209699 0.30775595 0
4.7996264 0.59877408 0.3072958 0
4.8027 0.67567956 0.30653948 0
4.8166208 0.79247463 0.30614844 0
4.8229227 0.90983045 0.30537605 0
4.8340182 1.0294702 0.30507392 0
4.8464746 1.1512762 0.30498272 0
4.8606234 1.2351227 0.30538517 0
4.8594441 1.3168439 0.30485287 0
4.8754072 1.4038881 0.30549848 0
4.8732076 1.4875509 0.30503127 0
4.8911767 1.5785177 0.30593684 0
4.8879652 1.6645148 0.30554044 0
4.9080677 1.7602018 0.30672079 0
4.9038057 1.8489625 0.30639938 0
4.926095 1.9502379 0.30786723 0
4.9206886 2.0422256 0.30762345 0
4.9451332 2.150023 0.30938911 0
4.9384289 2.2457318 0.30922395 0
4.9649067 2.361048 0.31129539 0
4.9566841 2.4609995 0.31120813 0
4.9849753 2.5848918 0.31359088 0
4.9749465 2.68963 0.31357923 0
5.0047312 2.8232155 0.31627679 0
4.9925375 2.9333081 0.31633681 0
5.0233831 3.0777588 0.31935042 0
5.0558281 3.229887 0.322613 0
5.0399575 3.3503437 0.3228063 0
3.4268909 2.8630459 0.22549917 0
5.0726018 3.51543 0.32638663 0
3.3709934 2.9057913 0.22320287 0
5.0532866 3.6428752 0.32663628 0
3.2542057 2.9841814 0.21841931 0
3.312511 2.9449985 0.22077583 0
3.1414802 3.0683367 0.21418875 0
3.1968791 3.0246799 0.21619692 0
5.0854082 3.8222718 0.33053228 0
3.0871787 3.114429 0.2123407 0
5.1181931 4.0117493 0.33468428 0
3.0610936 3.2106831 0.21286224 0
2.9809308 3.2909229 0.2105805 0
5.0927577 4.1524916 0.33503938 0
2.899364 3.3731556 0.20839949 0
2.764936 3.4339435 0.20356658 0
2.835901 3.4117858 0.20628853 0
2.5320826 3.4375448 0.19358861 0
2.6070311 3.4327679 0.19665956 0
2.6838706 3.4299674 0.19991732 0
2.0825963 3.3798194 0.17455319 0
2.1548204 3.3923283 0.17753449 0
2.2745481 3.4448309 0.18333209 0
2.3850265 3.4470377 0.18775275 0
2.4573996 3.440079 0.19054314 0
1.8810111 3.4058623 0.16799253 0
1.9811242 3.3891947 0.17110409 0
2.0995078 3.4781926 0.25512862 0
1.8207233 3.4815617 0.16773963 0
1.9652835 3.5287335 0.25216576 0
2.0278864 3.4754612 0.25204808 0
1.75765 3.5630288 0.16759096 0
1.6938972 3.6969681 0.1687277 0
1.6221272 3.7694955 0.16821486 0
1.5479468 3.94695 0.17019431 0
1.4500071 5.1528301 0.19605577 0
-1.1953402 -23.36618 0.61913723 0
0.091319084 -20.931517 0.59378773 0
4.214673 -5.4540706 0.49655306 0
4.2787595 -5.232933 0.48888582 0
4.2695494 -4.8852158 0.47195587 0
4.3270526 -4.6925545 0.46559215 0
4.3181148 -4.3964372 0.45135105 0
4.3703752 -4.2261777 0.44602025 0
4.3624125 -3.9710195 0.43395042 0
4.4104185 -3.8185802 0.42944887 0
4.4368315 -3.0791631 0.51857489 0
4.4775 -2.9593227 0.51392001 0
4.4766698 -2.7973876 0.50387007 0
4.4779887 -2.6460967 0.49478072 0
4.5154433 -2.5391502 0.4911491 0
4.518012 -2.4014075 0.48326051 0
4.5223484 -2.2713499 0.47609711 0
4.5282669 -2.1480522 0.46958253 0
4.5621467 -2.0532324 0.46695796 0
4.5687723 -1.9384999 0.46125153 0
4.576612 -1.8286602 0.45604005 0
4.5855007 -1.7231219 0.45127258 0
4.5952816 -1.6213632 0.44690353 0
4.6058054 -1.5229216 0.44289178 0
4.6169286 -1.4273877 0.43920064 0
4.614964 -1.326282 0.43428013 0
4.6280007 -1.2365789 0.43127623 0
4.6411667 -1.1486955 0.42848974 0
4.6495943 -1.0143528 0.42347494 0
4.6607733 -0.88492119 0.41914669 0
4.666503 -0.79984725 0.41631916 0
4.6769652 -0.67567152 0.41261086 0
4.6866875 -0.55352104 0.40914533 0
4.7008104 -0.43517792 0.40649638 0
4.7130432 -0.3176198 0.40393269 0
4.7195063 -0.19993818 0.44390637 0
4.7297068 -0.084523797 0.44154102 0
4.7406826 0.029855609 0.43964216 0
4.7510338 0.1438905 0.43795949 0
4.7611504 0.25768989 0.43659806 0
4.771533 0.37150943 0.43553698 0
4.7788954 0.44754994 0.43505514 0
4.7867913 0.52384305 0.43476242 0
4.7953825 0.6005137 0.43467507 0
4.7985291 0.67741442 0.43414348 0
4.8137589 0.79362303 0.39167264 0
4.8201227 0.91098166 0.3913562 0
4.8312836 1.0306349 0.3917582 0
4.8437896 1.1524599 0.39250779 0
4.8579664 1.2363255 0.39369547 0
4.8567958 1.3180566 0.39359456 0
4.8727679 1.4051225 0.39518452 0
4.8705668 1.4887968 0.39523187 0
4.8885241 1.5797859 0.3972553 0
4.8853011 1.6657946 0.39746386 0
4.9053698 1.761503 0.39995068 0
4.9010849 1.8502738 0.40033245 0
4.923317 1.9515662 0.40331107 0
4.9178753 2.043561 0.4038766 0
4.9422364 2.1513677 0.40737367 0
4.9354839 2.2470791 0.40813246 0
4.9618535 2.3623953 0.41217336 0
4.9535704 2.4623418 0.4131335 0
4.9817276 2.5862212 0.41774195 0
4.9716263 2.6909471 0.41891062 0
5.0012493 2.824502 0.42410934 0
4.9889708 2.9345713 0.42549261 0
5.019629 3.0789728 0.4313035 0
5.0518694 3.2310381 0.43757319 0
5.0358944 3.3514495 0.43935218 0
5.0683084 3.5164466 0.44627407 0
3.3883502 3.0515907 0.30771232 0
3.297277 3.1131876 0.30399776 0
3.2088056 3.1786709 0.30082086 0
3.3201618 3.217876 0.393558 0
3.1448095 3.2145944 0.29822078 0
3.2327008 3.2923374 0.39130211 0
3.0816908 3.3274517 0.29898411 0
3.1530592 3.381835 0.39089978 0
3.0036554 3.4206464 0.29824644 0
5.123673 4.3587356 0.33950642 0
2.9075763 3.4835746 0.29543906 0
2.7234621 3.535974 0.28763497 0
2.7971706 3.5161104 0.29071879 0
2.4916863 3.5552251 0.2766597 0
2.5695481 3.5533829 0.28044838 0
2.644532 3.5406504 0.28369984 0
2.2602322 3.5448537 0.26530576 0
2.3340366 3.5402396 0.2684437 0
2.4121909 3.5478985 0.27247316 0
2.1233718 3.6129868 0.3441076 0
2.1856542 3.5431156 0.26193663 0
2.2945595 3.6960359 0.35859361 0
2.3733568 3.6961517 0.36270058 0
1.9021068 3.5937815 0.25294268 0
1.9806165 3.6493838 0.34040475 0
2.0514517 3.627228 0.34186146 0
2.2171745 3.6982346 0.35488638 0
1.8366724 3.6627765 0.25393584 0
1.9153932 3.7211943 0.34304661 0
1.7712986 3.769944 0.25692385 0
1.7051998 3.951441 0.26367724 0
1.6487302 4.714469 0.29970062 0
1.5523221 4.881762 0.30503196 0
1.4466085 5.1462736 0.3150624 0
4.2642374 -4.8817329 0.6288414 0
4.3218689 -4.6892304 0.61876398 0
4.3131876 -4.3933702 0.59772748 0
4.3655496 -4.2232237 0.58928466 0
4.3577876 -3.9682457 0.57149941 0
4.4058714 -3.8158865 0.56437129 0
4.3994579 -3.5937076 0.54923832 0
4.4439955 -3.4556184 0.54317927 0
4.4391589 -3.2599683 0.53023273 0
4.4745164 -2.6443958 0.60745347 0
4.51196 -2.5374229 0.60247833 0
4.5144968 -2.3996205 0.59209228 0
4.5187855 -2.2695007 0.58266234 0
4.5246439 -2.1461415 0.57408887 0
4.5584836 -2.0512989 0.57050616 0
4.5650315 -1.9365094 0.56301403 0
4.5727854 -1.8266163 0.5561769 0
4.5815797 -1.721029 0.54992831 0
4.5912604 -1.6192265 0.544209 0
4.6016774 -1.520746 0.53896564 0
4.6126909 -1.4251802 0.53415054 0
4.6115341 -1.3245988 0.52792293 0
4.6244287 -1.2348337 0.52401567 0
4.6374531 -1.1468976 0.52040356 0
4.6456022 -1.0124615 0.51395124 0
4.6565056 -0.88296157 0.50840753 0
4.662035 -0.79784954 0.50480592 0
4.6723971 -0.67361033 0.54439592 0
4.6803007 -0.55086493 0.53938091 0
4.694921 -0.43277109 0.53592116 0
4.7076697 -0.31543577 0.53262818 0
4.7152019 -0.19805086 0.57215059 0
4.7238255 -0.082367778 0.56901354 0
4.7352538 0.031864405 0.56684786 0
4.7460608 0.14578176 0.56501544 0
4.7566299 0.2595017 0.56366938 0
4.7674589 0.37327254 0.56277192 0
4.7751107 0.44930071 0.56250763 0
4.783288 0.5255971 0.5625217 0
4.787241 0.60217392 0.56212425 0
4.7904601 0.6789791 0.56182456 0
4.8081608 0.79524922 0.52034748 0
4.8127556 0.91234887 0.52050662 0
4.8240261 1.0319118 0.52198088 0
4.8366179 1.1536543 0.52400732 0
4.8508387 1.2374732 0.52638417 0
4.8509288 1.3185112 0.48224536 0
4.8668871 1.4055135 0.48478144 0
4.8646851 1.4891179 0.48534498 0
4.8826113 1.5800414 0.48848784 0
4.88939 1.7137977 0.49120033 0
4.8950977 1.8503133 0.49418399 0
4.9172583 1.9515281 0.49867415 0
4.9117918 2.0434442 0.50005049 0
4.9360619 2.1511641 0.50527954 0
4.9292765 2.2467909 0.50696367 0
4.9555311 2.3620069 0.51297408 0
4.947207 2.4618611 0.51498288 0
4.9752283 2.5856252 0.52181673 0
4.9650779 2.6902485 0.5241667 0
4.9945421 2.8236694 0.53186578 0
4.9822073 2.9336252 0.5345732 0
5.0126858 3.0778704 0.54318035 0
5.0488791 3.6438313 0.44828311 0
5.0807457 3.8231106 0.4558813 0
3.4429948 3.2611411 0.40602055 0
5.1132584 4.0124497 0.46399164 0
5.0876951 4.1531019 0.46642673 0
3.1205289 3.4828787 0.39500749 0
3.9468267 3.811502 0.4796544 0
5.1183157 4.3591738 0.47526255 0
3.0949876 3.6050744 0.40115467 0
2.9364789 3.6460633 0.39300454 0
3.0193172 3.6338573 0.39779416 0
2.8529296 3.6538348 0.38803464 0
2.6166463 3.6977053 0.37644699 0
2.7031372 3.7099099 0.42691064 0
2.7860761 3.704092 0.43172917 0
2.4959397 3.7040296 0.3699733 0
2.634763 3.758872 0.47084415 0
2.1604297 3.8167396 0.44807756 0
2.0070338 3.8469601 0.44352809 0
2.0833092 3.829118 0.44540387 0
1.8526967 3.8477116 0.35004491 0
1.9331855 3.8869903 0.44420272 0
1.786297 3.9987991 0.35890809 0
1.7429334 4.7086291 0.41086057 0
1.6468848 4.7612128 0.41161412 0
1.549207 4.9154491 0.42019844 0
5.7936206 -10.281049 0.79997122 0
5.5305552 -10.352588 0.79214942 0
5.1421161 -10.054378 0.76109397 0
4.2088785 -5.4500022 0.66605139 0
4.2731247 -5.2290883 0.65391421 0
4.3506951 -3.9615715 0.70890599 0
4.3988066 -3.809411 0.69915134 0
4.3925362 -3.5875249 0.6791808 0
4.4370852 -3.449604 0.67089152 0
4.4323573 -3.2541957 0.65382737 0
4.4301171 -3.0736051 0.63846207 0
4.4707766 -2.9538987 0.63209128 0
4.4732056 -2.7957444 0.61943877 0
4.5070844 -2.3940296 0.70060849 0
4.5155811 -2.2679927 0.68976533 0
4.5213261 -2.1445086 0.67910373 0
4.5551014 -2.0496092 0.67454863 0
4.5615163 -1.9347062 0.66524297 0
4.5691276 -1.8247072 0.65675348 0
4.5777712 -1.7190223 0.64899808 0
4.5872941 -1.6171311 0.64190388 0
4.597549 -1.5185724 0.63540518 0
4.6083946 -1.4229374 0.62944323 0
4.6079454 -1.3228228 0.62193292 0
4.6206441 -1.2329683 0.61709964 0
4.6334715 -1.1449559 0.61264002 0
4.6434402 -0.99632496 0.63466185 0
4.6532192 -0.88142347 0.64355505 0
4.6581202 -0.79602796 0.63869691 0
4.6660852 -0.67086321 0.67673695 0
4.6775703 -0.5494529 0.67103529 0
4.6882586 -0.43012607 0.66597819 0
4.7017055 -0.31309044 0.66202116 0
4.7117138 -0.19665182 0.65816116 0
4.7197804 -0.080902338 0.6545158 0
4.731626 0.033210397 0.65221244 0
4.7428546 0.1470356 0.65032113 0
4.7538443 0.26069796 0.64902657 0
4.7650881 0.374439 0.64827973 0
4.7671056 0.45060706 0.64717114 0
4.7753906 0.52677727 0.64739281 0
4.7843566 0.60334575 0.64797956 0
4.7876844 0.68015027 0.64784908 0
4.8023067 0.79686797 0.64980757 0
4.8090382 0.9141556 0.65092474 0
4.8205967 1.0337876 0.6535176 0
4.833437 1.1556176 0.65686524 0
4.8478231 1.2395138 0.66046548 0
4.8476 1.3205081 0.61665726 0
4.8636575 1.4075831 0.62064385 0
4.8614902 1.4912344 0.62199515 0
4.8802304 1.5814096 0.58048689 0
4.8870044 1.7152083 0.58447123 0
4.8926892 1.8517638 0.58882374 0
4.9148016 1.9530089 0.59483576 0
4.9092994 2.0449414 0.59702617 0
4.9334812 2.1526787 0.6039952 0
4.9266405 2.2483137 0.60660672 0
4.9527683 2.3635294 0.61459231 0
4.9443693 2.4633808 0.61765093 0
4.9722228 2.5871215 0.62671345 0
4.9619789 2.6917272 0.63024461 0
4.9912357 2.8250961 0.64044523 0
4.9787889 2.9350169 0.64447528 0
5.0447292 3.2297626 0.55245548 0
5.0286865 3.3500385 0.5558207 0
5.060884 3.5148363 0.56608212 0
5.0451918 3.6454375 0.57037228 0
5.0767517 3.8245826 0.58166772 0
5.1089387 4.0137615 0.59373045 0
5.0832105 4.1543159 0.59824193 0
3.6542244 3.7227669 0.55085957 0
3.7960429 3.7686069 0.56808954 0
5.1134768 4.3601799 0.61143911 0
3.3409204 3.7163279 0.52189302 0
3.4474876 3.7271354 0.53223693 0
3.537796 3.7067208 0.53870678 0
3.0305836 3.6674037 0.53723413 0
3.1286039 3.6773195 0.50045538 0
3.2229633 3.678328 0.50843883 0
2.8647811 3.6927872 0.52608836 0
2.9494221 3.68523 0.53225064 0
2.7068632 3.7323873 0.56281936 0
2.7795553 3.6994891 0.56480914 0
2.5653772 3.8084188 0.5160923 0
2.6343546 3.7665961 0.56126374 0
2.4953766 3.8550162 0.51641273 0
2.4324105 3.9266253 0.47413433 0
2.3619943 3.9842138 0.47565046 0
2.292695 4.0554295 0.47879329 0
1.868263 4.0311456 0.45596802 0
1.8355023 4.6826935 0.52052927 0
1.742928 4.7711868 0.52604043 0
1.6453278 4.8207421 0.52768892 0
1.4436547 5.1129885 0.43202931 0
4.2008953 -5.4410863 0.83539987 0
4.2652259 -5.2205248 0.81879354 0
4.2566257 -4.8737321 0.78558093 0
4.3143191 -4.6815143 0.77179009 0
4.3058686 -4.3861008 0.74396026 0
4.3582735 -4.2161903 0.73240542 0
4.3882365 -3.5851116 0.8101092 0
4.4328198 -3.4472072 0.79956937 0
4.4281507 -3.2518027 0.77834576 0
4.4259405 -3.071197 0.75923175 0
4.4665976 -2.9514854 0.75112581 0
4.4658203 -2.7896965 0.73467976 0
4.4671526 -2.6385236 0.71980453 0
4.50455 -2.5316792 0.71348733 0
4.5031505 -2.3918476 0.81031471 0
4.5072985 -2.2617519 0.79630476 0
4.5182576 -2.1431055 0.78479242 0
4.5519443 -2.0481176 0.77924627 0
4.5581737 -1.9330478 0.76809156 0
4.565587 -1.8228935 0.75791508 0
4.5740252 -1.7170658 0.74861962 0
4.5833359 -1.6150448 0.74011874 0
4.5933719 -1.5163693 0.73233408 0
4.6039953 -1.420632 0.72519612 0
4.6041536 -1.3209262 0.71641684 0
4.6166019 -1.230958 0.71062893 0
4.629178 -1.142848 0.70529437 0
4.6344376 -1.0223181 0.75844282 0
4.6459451 -0.87809098 0.7791146 0
4.6502132 -0.79252106 0.77294517 0
4.6631713 -0.66956413 0.76596189 0
4.6727705 -0.54749238 0.75903761 0
4.6860218 -0.42906141 0.75382739 0
4.6972566 -0.31139755 0.74889266 0
4.7079611 -0.19518816 0.74470085 0
4.7155738 -0.079401731 0.74053526 0
4.7279196 0.034574389 0.73813224 0
4.7396526 0.14829493 0.73622048 0
4.7511473 0.26189399 0.73501688 0
4.7559624 0.37593102 0.73307884 0
4.7640228 0.45180213 0.73315251 0
4.7725954 0.52796233 0.73362315 0
4.7818394 0.60453516 0.7345224 0
4.7853022 0.6813494 0.73457336 0
4.8003068 0.79811573 0.73719358 0
4.8072762 0.91545856 0.73883152 0
4.8191023 1.0351753 0.74220729 0
4.8321762 1.1571063 0.74647135 0
4.838953 1.2394214 0.74936622 0
4.8379006 1.3210082 0.75103438 0
4.8540101 1.407986 0.75648057 0
4.8518744 1.4915228 0.75862557 0
4.8742719 1.5827378 0.71919692 0
4.885479 1.7169363 0.67847288 0
4.8911543 1.8535726 0.68420726 0
4.9132271 1.9548759 0.69175255 0
4.9076872 2.0468497 0.69476229 0
4.9317842 2.1546311 0.70348144 0
4.924881 2.2502975 0.70702469 0
4.9508696 2.3655331 0.7169928 0
4.9423838 2.4654021 0.7211042 0
4.9700556 2.589138 0.73240173 0
4.9597011 2.6937439 0.73711622 0
4.9887285 2.8270738 0.74982244 0
5.0090222 3.0791759 0.65587717 0
5.0407948 3.2309587 0.66815495 0
5.0246129 3.3511629 0.67310286 0
5.0565023 3.5158067 0.6866985 0
5.0368462 3.642941 0.69222224 0
5.0681348 3.8217869 0.70721155 0
5.1000347 4.0106397 0.72322303 0
5.0742183 4.1509595 0.72981131 0
3.5722172 3.766995 0.64753711 0
3.7357113 3.8507977 0.67387116 0
3.915189 3.9443285 0.70326316 0
3.1279023 3.6825843 0.59371889 0
3.2273402 3.6928661 0.6044063 0
3.3594415 3.7551227 0.62430704 0
3.479043 3.7857542 0.63979101 0
4.2163768 4.182519 0.64205176 0
2.9160786 3.7203674 0.67084169 0
3.0497518 3.7177291 0.68385935 0
2.8086219 3.7807922 0.66911298 0
2.6558018 3.8381016 0.66379619 0
2.7232833 3.7852707 0.66203326 0
2.5905788 3.9023423 0.66772437 0
2.4354787 3.9495199 0.56927311 0
2.3690341 4.025815 0.57434952 0
2.2997894 4.1020236 0.57951462 0
2.2376175 4.2292733 0.59173954 0
2.1781785 4.4040389 0.61035568 0
2.0969019 4.4815335 0.61587244 0
2.0132213 4.56424 0.62223327 0
1.9264522 4.6497016 0.6291101 0
1.5459086 4.9292502 0.53553104 0
1.4405385 5.0912037 0.54889548 0
4.3093615 -4.6786513 0.92597622 0
4.3011436 -4.3834252 0.89130855 0
4.3536396 -4.2135892 0.87662047 0
4.3462272 -3.9590743 0.84736288 0
4.3943992 -3.8069541 0.83496064 0
4.4245272 -3.250186 0.90373218 0
4.4223089 -3.0694783 0.88082647 0
4.4629493 -2.9497132 0.87096453 0
4.462121 -2.7878103 0.85125983 0
4.463378 -2.6365166 0.83343285 0
4.5007243 -2.529618 0.82574463 0
4.5034971 -2.2597034 0.90449381 0
4.508997 -2.1361928 0.88960469 0
4.5489435 -2.0467672 0.88475382 0
4.5549355 -1.9314821 0.87170607 0
4.5621004 -1.8211274 0.85980093 0
4.570281 -1.715116 0.84892547 0
4.5793257 -1.6129267 0.83897889 0
4.5890908 -1.514101 0.82987136 0
4.605453 -1.4220312 0.8229546 0
4.6001034 -1.3188775 0.81147677 0
4.6122503 -1.2287741 0.8047002 0
4.6219888 -1.1392863 0.84533846 0
4.6318197 -1.0059834 0.88112646 0
4.6402831 -0.8755039 0.87013543 0
4.6501417 -0.79237539 0.86454409 0
4.6604042 -0.66824651 0.85598356 0
4.667366 -0.54532301 0.84754449 0
4.6842279 -0.42805254 0.84256661 0
4.6923809 -0.30958843 0.8363235 0
4.7038789 -0.19364464 0.83185768 0
4.7183952 -0.07923007 0.8288483 0
4.7240639 0.035967708 0.82470888 0
4.7363811 0.14956987 0.8228215 0
4.7484598 0.26309806 0.8217541 0
4.7527056 0.37715399 0.81960559 0
4.7611146 0.45300233 0.81989825 0
4.7700272 0.5291574 0.82064688 0
4.7796011 0.60574216 0.82188773 0
4.7832232 0.68257415 0.82213449 0
4.7986822 0.7994076 0.82545948 0
4.805934 0.91682506 0.82764626 0
4.8092403 1.0352879 0.82984531 0
4.8224039 1.1569905 0.83500981 0
4.8369961 1.2408235 0.84028292 0
4.8360181 1.3224554 0.84241772 0
4.8522544 1.409508 0.84887636 0
4.8501673 1.493095 0.8515681 0
4.8682222 1.58407 0.85931343 0
4.8727546 1.700721 0.80203134 0
4.8822594 1.8525022 0.77885282 0
4.9042473 1.9536443 0.78792465 0
4.8986883 2.0454617 0.79175264 0
4.9226665 2.1530621 0.80221474 0
4.9157305 2.2485595 0.80668867 0
4.9415712 2.3635919 0.81863433 0
4.9330416 2.4632771 0.82379782 0
4.9605246 2.5867748 0.83732307 0
4.9501143 2.6911783 0.84322029 0
4.9761491 2.9369726 0.75517625 0
5.0061059 3.0810521 0.76937503 0
5.037571 3.2327251 0.78465593 0
5.0212226 3.3528638 0.79118598 0
5.0527616 3.5173464 0.80811429 0
5.0329223 3.6443825 0.81539124 0
5.0638232 3.8230097 0.83406883 0
5.1091003 4.3617053 0.74827117 0
3.1331508 3.6996098 0.69012845 0
3.2335141 3.7108421 0.70251566 0
3.3697808 3.7797332 0.72690684 0
3.5062082 3.837326 0.75016809 0
3.6504207 3.8967586 0.77493268 0
2.9763107 3.7631269 0.77719808 0
2.5201077 3.9554746 0.66992718 0
2.4486842 4.0106535 0.67268419 0
2.3803482 4.0854745 0.67891151 0
2.3096333 4.1617365 0.68552238 0
2.2587397 4.3552332 0.7113868 0
2.1817029 4.4444227 0.72023565 0
2.0991545 4.5199265 0.72705042 0
2.014565 4.6028395 0.73525041 0
1.8364991 4.7402663 0.63681382 0
1.7427524 4.832706 0.64492697 0
1.6437252 4.8825474 0.64774257 0
1.5426619 4.9606042 0.65442544 0
1.4362907 5.132669 0.67329031 0
1.3200761 5.3467684 0.69760525 0
4.1953402 -5.4376054 1.0059952 0
4.2598343 -5.217236 0.98489863 0
4.2515421 -4.8707447 0.94350153 0
4.3496838 -4.2121544 1.0218908 0
4.3424129 -3.9576437 0.9868257 0
4.3906455 -3.8055081 0.97175193 0
4.3845615 -3.583617 0.94197315 0
4.4291735 -3.4456754 0.92915994 0
4.419138 -3.0683525 1.0034627 0
4.4597554 -2.9484971 0.99182028 0
4.4588361 -2.7864065 0.96880561 0
4.4599748 -2.6349232 0.94797754 0
4.4972515 -2.5279312 0.93889433 0
4.4995232 -2.3899775 0.92086673 0
4.5051308 -2.1340971 0.99655068 0
4.5385756 -2.0391626 0.98899621 0
4.5517178 -1.9299424 0.97622401 0
4.5585866 -1.8193483 0.96254134 0
4.5664601 -1.7131162 0.95003897 0
4.5751901 -1.6107267 0.93860221 0
4.5846381 -1.511723 0.92812985 0
4.601593 -1.4200741 0.92040014 0
4.5957279 -1.3166366 0.90720832 0
4.6049461 -1.2250617 0.94711667 0
4.6214352 -1.1392951 0.98884577 0
4.6262627 -1.0033249 0.97423553 0
4.6410341 -0.87580037 0.96371239 0
4.643919 -0.78963405 0.95551437 0
4.654109 -0.66561913 0.94595122 0
4.668581 -0.54540777 0.93858647 0
4.6789074 -0.42601097 0.93131322 0
4.694766 -0.30969048 0.92643768 0
4.6993937 -0.19200385 0.91971463 0
4.7145877 -0.077791691 0.91662568 0
4.7199783 0.037403822 0.91203791 0
4.7329531 0.15087175 0.91022521 0
4.7414289 0.2264843 0.9095031 0
4.7410135 0.30277872 0.90691477 0
4.7494783 0.3783859 0.90698242 0
4.7582855 0.45421213 0.90752721 0
4.7675877 0.53036487 0.90858728 0
4.7775378 0.60696614 0.91020262 0
4.7813435 0.68382239 0.9106617 0
4.7924099 0.80027032 0.91350049 0
4.7949839 0.91706693 0.91500384 0
4.807261 1.0366292 0.9199872 0
4.8207231 1.1584302 0.92612463 0
4.8355203 1.2423483 0.93228424 0
4.8346291 1.324041 0.93489921 0
4.8510203 1.4111893 0.94239688 0
4.8489919 1.494844 0.94564819 0
4.8671455 1.5859177 0.95459807 0
4.8744965 1.7187834 0.91514397 0
4.8806677 1.8543255 0.87569952 0
4.9026222 1.955529 0.88632977 0
4.8970251 2.0473871 0.89098853 0
