# .PCD v0.7 - Point Cloud Data file format
VERSION 0.7
FIELDS x y z intensity
SIZE 4 4 4 4
TYPE F F F F
COUNT 1 1 1 1
WIDTH 1419
HEIGHT 1
VIEWPOINT 0 0 0 1 0 0 0
POINTS 1419
DATA ascii
4.7503619 -2.4526052 0.096809313 0
4.7496772 -2.3492475 0.095971376 0
4.7499785 -2.2482131 0.095194884 0
4.749804 -2.1486421 0.09444961 0
4.7490525 -2.0504172 0.093732372 0
4.7494435 -1.9542053 0.093074679 0
4.7499061 -1.8476479 0.092379272 0
4.7489409 -1.7421445 0.091700032 0
4.7493839 -1.6501775 0.091157392 0
4.7492952 -1.5478776 0.09057609 0
4.7503972 -1.4472306 0.09005551 0
4.7495852 -1.3472579 0.089540631 0
4.7499547 -1.2487222 0.089084037 0
4.7495975 -1.1510643 0.088652901 0
4.7500019 -1.0438321 0.088230051 0
4.7491665 -0.94795626 0.087864891 0
4.7496614 -0.85315579 0.087559476 0
4.7501268 -0.74855435 0.087257758 0
4.7498589 -0.64456266 0.086984374 0
4.7496448 -0.54122555 0.086752638 0
4.7499309 -0.44871721 0.086586192 0
4.7496276 -0.35651234 0.086442746 0
4.7497454 -0.2544232 0.086328045 0
4.7498579 -0.15256736 0.086252317 0
4.7498107 -0.05085361 0.086212695 0
4.7498116 0.050811272 0.086212702 0
4.7498603 0.15252504 0.086252339 0
4.7497492 0.25438097 0.086328074 0
4.7496324 0.35647014 0.086442769 0
4.7499361 0.44867504 0.086586222 0
4.7496514 0.54118341 0.086752668 0
4.7498674 0.64452064 0.086984411 0
4.7501364 0.74851233 0.087257795 0
4.7496724 0.85311395 0.087559529 0
4.7491784 0.9479146 0.08786495 0
4.7500148 1.0437905 0.088230118 0
4.7496133 1.1510231 0.088652998 0
4.7499714 1.2486813 0.089084134 0
4.7496023 1.3472171 0.089540727 0
4.7504158 1.4471898 0.090055607 0
4.7493148 1.5478367 0.090576194 0
4.7494049 1.6501369 0.091157496 0
4.7489624 1.7421041 0.091700137 0
4.7499299 1.8476082 0.092379391 0
4.7494678 1.9541658 0.093074806 0
4.7490788 2.0503783 0.093732513 0
4.7498312 2.1486032 0.094449759 0
4.7500072 2.2481744 0.09519504 0
4.7497072 2.3492093 0.095971532 0
4.7503929 2.4525673 0.096809484 0
4.7482872 2.5563118 0.097635522 0
4.749754 2.6505356 0.098460592 0
4.749198 2.7453475 0.099282973 0
4.7468367 2.8127949 0.099850379 0
4.7467937 -4.9551029 0.12360339 0
4.7500291 -4.8513017 0.12232818 0
4.7493329 -4.7456307 0.120995 0
4.7496467 -4.6434102 0.11973194 0
4.7498856 -4.5432272 0.11850587 0
4.7490191 -4.4441867 0.11729437 0
4.7517447 -4.3504629 0.11620481 0
4.7534275 -4.2577443 0.11512813 0
4.7541089 -4.1475854 0.11384863 0
4.7535858 -4.0389047 0.11258932 0
4.7523165 -3.9494581 0.11155546 0
4.7502074 -3.8610957 0.11053622 0
4.7467313 -3.7563827 0.10933127 0
4.7510843 -3.6601124 0.10834316 0
4.7485485 -3.5604002 0.10724118 0
4.749032 -3.4492936 0.1060814 0
4.7498088 -3.340744 0.10497484 0
4.7501621 -3.249402 0.10405841 0
4.7497363 -3.1591799 0.10315901 0
4.748313 -3.0553851 0.10213254 0
4.751524 -2.9565401 0.10124278 0
4.7488542 -2.8699543 0.10040122 0
4.7488914 2.8699181 0.10040144 0
4.7515626 2.9565048 0.10124301 0
4.7483525 3.0553501 0.10213278 0
4.7497764 3.1591454 0.10315926 0
4.7502036 3.2493677 0.10405865 0
4.7498517 3.3407104 0.1049751 0
4.7490759 3.4492607 0.10608167 0
4.7485938 3.5603676 0.10724145 0
4.7511315 3.6600807 0.10834348 0
4.7467799 3.7563515 0.10933159 0
4.7502575 3.8610656 0.11053657 0
4.7523675 3.9494281 0.1115558 0
4.7536378 4.0388756 0.11258966 0
4.7541623 4.1475568 0.11384899 0
4.7534823 4.2577167 0.11512851 0
4.7518001 4.3504353 0.11620519 0
4.7490768 4.4441609 0.11729477 0
4.7499447 4.5432014 0.11850627 0
4.7497087 4.6433873 0.11973242 0
4.7493997 4.7456121 0.12099559 0
4.7500968 4.8512836 0.12232878 0
4.7468624 4.9550858 0.123604 0
4.7496157 -3.1442268 0.29927051 0
4.7482319 -3.0553334 0.29662949 0
4.7509613 -2.9561825 0.29392818 0
4.7478881 -2.8553953 0.29099488 0
4.7488222 -2.745183 0.28805757 0
4.7494769 -2.650434 0.28559449 0
4.7481122 -2.5562708 0.28312343 0
4.7503223 -2.4525838 0.28064951 0
4.7496033 -2.3492112 0.27813169 0
4.7495756 -2.248018 0.27578118 0
4.7494926 -2.1484981 0.27354899 0
4.7488308 -2.0503194 0.27140084 0
4.7493062 -1.9541473 0.26943105 0
4.7498598 -1.8476293 0.26734835 0
4.7489853 -1.742161 0.26531407 0
4.7495036 -1.6502196 0.26368892 0
4.749496 -1.5479442 0.26194811 0
4.7506728 -1.4473162 0.26038909 0
4.749218 -1.3471532 0.25880808 0
4.7494669 -1.2485912 0.25743076 0
4.749166 -1.1509572 0.25613946 0
4.7496247 -1.0437473 0.25487289 0
4.7488375 -0.94788909 0.25377917 0
4.7493734 -0.8531028 0.25286445 0
4.7498794 -0.74851435 0.25196075 0
4.749649 -0.64453351 0.25114197 0
4.7494664 -0.54120475 0.25044793 0
4.7497754 -0.44870216 0.24994941 0
4.7494926 -0.356502 0.24951978 0
4.7496266 -0.2544167 0.24917626 0
4.7497501 -0.1525638 0.2489495 0
4.7497087 -0.050852485 0.24883083 0
4.7497091 0.050810147 0.24883083 0
4.749752 0.15252146 0.24894953 0
4.7496295 0.25437441 0.24917631 0
4.7494974 0.35645977 0.24951987 0
4.7497478 0.45892534 0.25000173 0
4.7494388 0.55145675 0.25050741 0
4.7496576 0.64449155 0.25114211 0
4.7498894 0.74847257 0.25196093 0
4.7493844 0.85306102 0.2528646 0
4.7488499 0.94784755 0.25377941 0
4.7496376 1.0437058 0.25487313 0
4.7491798 1.1509159 0.25613964 0
4.7494836 1.2485502 0.25743103 0
4.7492361 1.3471124 0.25880843 0
4.7506914 1.4472754 0.26038939 0
4.7495165 1.5479037 0.26194841 0
4.7495251 1.6501794 0.26368928 0
4.7490077 1.742121 0.26531443 0
4.7498832 1.8475895 0.26734871 0
4.7493305 1.9541078 0.26943141 0
4.7488565 2.0502801 0.27140123 0
4.7495189 2.148459 0.27354944 0
4.7496033 2.2479792 0.2757816 0
4.7496328 2.3491731 0.27813217 0
4.7503529 2.4525464 0.28065005 0
4.7481441 2.5562332 0.28312397 0
4.7495103 2.6503966 0.28559503 0
4.7488575 2.7451463 0.28805816 0
4.7479243 2.8553586 0.29099548 0
4.750999 2.9561465 0.29392883 0
4.7482705 3.0552981 0.2966302 0
4.7496557 3.1441917 0.29927126 0
4.7465239 -4.9548154 0.3610788 0
4.7496548 -4.8509116 0.35724244 0
4.7488465 -4.7451348 0.35323155 0
4.7490926 -4.642858 0.3494347 0
4.7494283 -4.5427799 0.34576094 0
4.7486801 -4.4438624 0.34213236 0
4.7515135 -4.3502474 0.33886915 0
4.7533088 -4.2576356 0.33564457 0
4.7538104 -4.1473198 0.33179048 0
4.7532582 -4.0386205 0.32800767 0
4.7520981 -3.9492726 0.32491124 0
4.7500992 -3.8610058 0.32185873 0
4.746757 -3.756403 0.31825003 0
4.7512236 -3.6602218 0.31529084 0
4.7480788 -3.5600405 0.31194192 0
4.7486868 -3.4490371 0.30846822 0
4.7495861 -3.340584 0.30515406 0
4.7500443 -3.2493198 0.30240932 0
4.7499433 -3.1890621 0.30060619 0
4.7499843 3.1890278 0.30060694 0
4.7500858 3.2492855 0.30241004 0
4.7496285 3.3405502 0.30515483 0
4.7487307 3.4490037 0.30846903 0
4.7481232 3.5600078 0.31194273 0
4.7512708 3.6601896 0.31529176 0
4.7468057 3.7563722 0.31825092 0
4.7501483 3.860975 0.32185966 0
4.7521486 3.9492421 0.32491225 0
4.7533102 4.0385909 0.32800868 0
4.7538629 4.1472907 0.33179152 0
4.7533622 4.2576065 0.33564559 0
4.7515697 4.3502197 0.33887029 0
4.7487369 4.4438357 0.34213352 0
4.749486 4.5427542 0.34576213 0
4.749156 4.6428361 0.34943619 0
4.7489181 4.745121 0.35323364 0
4.7497277 4.8508992 0.35724461 0
4.7465978 4.9548035 0.361081 0
4.749424 -3.1589706 0.49696183 0
4.7474928 -3.0548458 0.49176395 0
4.7510109 -2.9562137 0.4873369 0
4.7481766 -2.8555717 0.48246461 0
4.7486844 -2.7451053 0.47751763 0
4.7488613 -2.6500828 0.47335771 0
4.7476912 -2.5560391 0.46925256 0
4.7501011 -2.4524672 0.46514282 0
4.7497988 -2.3493078 0.4609805 0
4.7491927 -2.247833 0.45700037 0
4.7492962 -2.148407 0.45329225 0
4.7488174 -2.0503132 0.44972378 0
4.7494645 -1.9542137 0.44645172 0
4.7502046 -1.8477657 0.4429923 0
4.7480536 -1.7418115 0.43947679 0
4.748704 -1.6499357 0.43677673 0
4.7488427 -1.5477263 0.43388453 0
4.7501512 -1.4471538 0.4312945 0
4.7495484 -1.3472468 0.42873296 0
4.7501063 -1.2487625 0.42646152 0
4.7499294 -1.1511459 0.42431679 0
4.7489901 -1.0436049 0.4220767 0
4.7482982 -0.94777918 0.42025965 0
4.7489142 -0.85301846 0.41873994 0
4.7495031 -0.74845368 0.41723877 0
4.7493463 -0.64449149 0.41587853 0
4.749227 -0.5411768 0.41472554 0
4.7495823 -0.44868347 0.4138974 0
4.7493382 -0.35649008 0.41318369 0
4.7495041 -0.25440994 0.41261306 0
4.749649 -0.15256044 0.41223627 0
4.7496185 -0.050851487 0.41203919 0
4.7496195 0.050809156 0.41203919 0
4.749651 0.15251812 0.41223636 0
4.7495084 0.25436771 0.41261321 0
4.7493429 0.35644788 0.41318378 0
4.7495489 0.45890561 0.4139843 0
4.7491932 0.5514276 0.41482431 0
4.7493539 0.64444941 0.41587871 0
4.7495117 0.74841172 0.41723895 0
4.7489257 0.8529768 0.41874021 0
4.7483106 0.94773757 0.42025995 0
4.7490029 1.0435632 0.42207703 0
4.7499442 1.1511046 0.42431718 0
4.7501221 1.2487214 0.42646191 0
4.7495651 1.3472059 0.42873341 0
4.7501698 1.447113 0.43129498 0
4.7488618 1.5476857 0.43388504 0
4.7487249 1.6498954 0.43677729 0
4.748075 1.7417712 0.43947732 0
4.7502279 1.8477261 0.44299293 0
4.7494888 1.9541743 0.44645238 0
4.7488437 2.0502741 0.44972447 0
4.7493229 2.1483676 0.45329291 0
4.7492213 2.2477944 0.45700118 0
4.7498283 2.3492696 0.46098134 0
4.7501326 2.4524293 0.46514362 0
4.7477236 2.5560017 0.46925345 0
4.7488952 2.6500461 0.47335863 0
4.7487192 2.7450683 0.47751865 0
4.7482128 2.8555355 0.48246568 0
4.7510486 2.9561777 0.48733798 0
4.7475319 3.0548105 0.49176508 0
4.749464 3.1589355 0.49696302 0
4.7464433 -4.9330349 0.59803748 0
4.7496166 -4.8508687 0.59302253 0
4.7489367 -4.7452269 0.58634317 0
4.7490315 -4.642797 0.57998592 0
4.7495718 -4.5429206 0.57387811 0
4.7483258 -4.4435272 0.56776047 0
4.7510009 -4.3497677 0.56229407 0
4.7530122 -4.2573638 0.55693722 0
4.7534661 -4.1470141 0.55049819 0
4.7530193 -4.0384126 0.54419583 0
4.7520795 -3.9492564 0.53905225 0
4.7499037 -3.8608463 0.5339365 0
4.7460165 -3.7558043 0.52785099 0
4.7506895 -3.6598012 0.52293491 0
4.7485213 -3.560379 0.51745248 0
4.7484632 -3.4488738 0.51158053 0
4.7492962 -3.3403752 0.50604081 0
4.7499633 -3.2492628 0.50148141 0
4.7484665 -1.3248944 0.59878826 0
4.749361 -1.2485623 0.59639865 0
4.7493534 -1.1510031 0.59341043 0
4.7501044 -1.0438546 0.59047985 0
4.7495737 -0.948039 0.58794928 0
4.7486086 -0.85296601 0.5856185 0
4.7488875 -0.74835443 0.58347332 0
4.7488413 -0.6444214 0.58157825 0
4.7487674 -0.55141997 0.58010924 0
4.7491937 -0.45891315 0.57893908 0
4.7490549 -0.35646826 0.57782394 0
4.7492681 -0.25439692 0.57702887 0
4.749444 -0.15255369 0.57650405 0
4.7494302 -0.050849415 0.57622945 0
4.7494307 0.050807081 0.57622945 0
4.7494459 0.15251139 0.57650411 0
4.7492714 0.25435466 0.57702899 0
4.7490592 0.35642606 0.57782406 0
4.7491999 0.45887104 0.57893932 0
4.748775 0.55137783 0.58010954 0
4.7488494 0.64437938 0.58157855 0
4.7488971 0.74831259 0.58347368 0
4.74862 0.85292423 0.58561885 0
4.7495861 0.94799739 0.58794975 0
4.7501187 1.0438131 0.59048045 0
4.7493682 1.1509619 0.59341103 0
4.7493773 1.2485212 0.59639931 0
4.7484837 1.3248534 0.59878892 0
4.7500048 3.2492287 0.50148267 0
4.7493386 3.3403416 0.50604218 0
4.748507 3.4488409 0.5115819 0
4.7485671 3.5603468 0.51745385 0
4.7507358 3.6597688 0.52293628 0
4.7460637 3.7557726 0.52785248 0
4.7499528 3.860815 0.53393811 0
4.7521296 3.9492259 0.53905392 0
4.7530704 4.038383 0.5441975 0
4.7535191 4.1469846 0.55049992 0
4.7530665 4.2573352 0.55693907 0
4.7510562 4.3497396 0.56229591 0
4.748383 4.4435 0.56776243 0
4.7496305 4.5428944 0.57388014 0
4.7490964 4.642777 0.57998866 0
4.7490149 4.7452192 0.58634746 0
4.7496953 4.8508625 0.59302688 0
4.7465229 4.9330297 0.59804195 0
4.7454576 -4.9753742 0.60067976 0
4.7488041 -3.15855 0.69534391 0
4.7474852 -3.0548398 0.6881398 0
4.7513204 -2.9564095 0.68197292 0
4.7474461 -2.8551269 0.67498499 0
4.7484975 -2.7449901 0.66812038 0
4.749651 -2.6505325 0.66242069 0
4.7468863 -2.5555961 0.65643495 0
4.7495899 -2.4521968 0.65070891 0
4.7495928 -2.3492036 0.64491022 0
4.7492104 -2.2478447 0.63935518 0
4.7491021 -2.1483171 0.63412225 0
4.7488976 -2.0503483 0.62915117 0
4.7498016 -1.9543549 0.6245932 0
4.7487864 -1.8472023 0.61950588 0
4.7483444 -1.7419205 0.61479759 0
4.7492146 -1.6501164 0.6110366 0
4.7495928 -1.5479753 0.60700816 0
4.7490358 -1.4468064 0.60313267 0
4.7488689 -1.3801079 0.60072631 0
4.7488861 1.3800669 0.60072696 0
4.7490544 1.4467659 0.60313338 0
4.7496123 1.5479348 0.60700881 0
4.7492356 1.6500763 0.61103743 0
4.7483664 1.7418801 0.61479843 0
4.7488098 1.8471625 0.61950672 0
4.7498264 1.9543155 0.62459421 0
4.7489233 2.0503092 0.62915218 0
4.7491293 2.148278 0.63412327 0
4.749238 2.2478063 0.63935632 0
4.7496233 2.3491657 0.64491141 0
4.7496209 2.4521594 0.65071023 0
4.7469187 2.5555587 0.65643626 0
4.7496853 2.650496 0.662422 0
4.7485328 2.7449536 0.66812176 0
4.7474823 2.8550906 0.67498648 0
4.7513585 2.9563742 0.68197459 0
4.7475243 3.0548048 0.68814147 0
4.7488441 3.158515 0.69534558 0
4.7455378 4.9753685 0.60068429 0
4.7482963 -4.4434943 0.79479164 0
4.7508898 -4.3496666 0.78710699 0
4.7524304 -4.2568307 0.77951056 0
4.7535062 -4.1470504 0.77057737 0
4.7527561 -4.0381837 0.76168293 0
4.7521443 -3.9493113 0.75451756 0
4.7490239 -3.8601124 0.74718684 0
4.7463226 -3.7560508 0.73883504 0
4.7501874 -3.6594093 0.73180914 0
4.7478023 -3.559828 0.72408181 0
4.7486258 -3.4489949 0.71597713 0
4.7488294 -3.3400395 0.70810705 0
4.7498055 -3.2491522 0.70175505 0
4.7486935 -1.8353727 0.7969653 0
4.7488303 -1.7421018 0.7916832 0
4.7486749 -1.649931 0.78665912 0
4.7480268 -1.5474535 0.7812916 0
4.7498116 -1.4470475 0.77668256 0
4.7496881 -1.3472865 0.77212489 0
4.7493291 -1.2485597 0.7678625 0
4.7481971 -1.1507165 0.76382422 0
4.7491665 -1.0436437 0.76008022 0
4.748826 -0.94788641 0.75684738 0
4.7497401 -0.85316926 0.75414389 0
4.7506247 -0.74863362 0.75147331 0
4.7479744 -0.64430106 0.74861145 0
4.748013 -0.55133033 0.74673486 0
4.7485299 -0.45884746 0.74524003 0
4.748477 -0.35642391 0.74381542 0
4.7487521 -0.25436863 0.74279988 0
4.7489696 -0.15253809 0.74212945 0
4.7489767 -0.050844438 0.74177867 0
4.7489777 0.050802112 0.74177873 0
4.7489715 0.15249577 0.7421295 0
4.7487555 0.25432637 0.74280012 0
4.7484813 0.35638168 0.74381566 0
4.7485352 0.45880538 0.74524027 0
4.7480206 0.55128837 0.74673527 0
4.747983 0.6442591 0.74861187 0
4.7506347 0.74859178 0.75147372 0
4.7497511 0.8531276 0.75414437 0
4.7488384 0.94784474 0.75684804 0
4.7491794 1.0436022 0.76008081 0
4.7482119 1.1506752 0.76382494 0
4.7493453 1.2485187 0.76786333 0
4.7497053 1.3472455 0.77212566 0
4.7498302 1.4470068 0.77668357 0
4.7480469 1.5474131 0.78129262 0
4.7486959 1.6498908 0.78666019 0
4.7488523 1.7420616 0.79168421 0
4.7487164 1.835333 0.79696643 0
4.7498469 3.2491179 0.70175689 0
4.7488723 3.3400061 0.7081089 0
4.7486696 3.4489617 0.71597904 0
4.7478471 3.5597954 0.72408372 0
4.7502341 3.6593773 0.73181123 0
4.7463703 3.7560196 0.73883718 0
4.7490735 3.8600819 0.74718904 0
4.7521949 3.9492812 0.75451982 0
4.7528076 4.0381541 0.76168531 0
4.7535596 4.1470218 0.77057981 0
4.7524848 4.2568026 0.77951318 0
4.7509451 4.3496389 0.78710961 0
4.7483521 4.4434667 0.79479426 0
4.7465458 -4.9548392 0.83924997 0
4.7491336 -4.850369 0.83016539 0
4.7485075 -4.7447863 0.82080114 0
4.7491512 -4.6429157 0.8119753 0
4.749217 -4.5425763 0.80332208 0
4.7492433 -3.1588488 0.89558482 0
4.7474594 -3.0548217 0.88620281 0
4.7509265 -2.9561636 0.87817937 0
4.7473178 -2.8550429 0.86921471 0
4.7487063 -2.7451177 0.86042273 0
4.7484393 -2.6498418 0.85281086 0
4.7479715 -2.5561917 0.84550667 0
4.7486305 -2.4516904 0.83775258 0
4.749033 -2.3489203 0.83034497 0
4.7492466 -2.2478645 0.82328522 0
4.748744 -2.1481509 0.81646609 0
4.7488999 -2.050349 0.81011665 0
4.7488523 -1.9539622 0.80407393 0
4.7498035 -1.8947718 0.80062014 0
4.7498279 1.8947324 0.80062133 0
4.748877 1.9539229 0.80407524 0
4.7489262 2.0503099 0.8101179 0
4.7487721 2.1481125 0.81646758 0
4.7492747 2.2478259 0.82328665 0
4.7490635 2.3488824 0.83034652 0
4.7486615 2.4516528 0.83775407 0
4.748004 2.5561545 0.84550834 0
4.7484727 2.6498048 0.85281259 0
4.7487416 2.7450812 0.86042458 0
4.747354 2.8550067 0.86921668 0
4.7509642 2.9561284 0.87818146 0
4.747498 3.0547867 0.8862049 0
4.7492833 3.1588142 0.89558703 0
4.7492752 4.5425501 0.80332494 0
4.749218 4.6428976 0.81197953 0
4.7485905 4.7447844 0.82080811 0
4.7492175 4.8503685 0.83017254 0
4.7466316 4.9548397 0.83925724 0
4.7489657 -3.8600636 0.96236277 0
4.7460632 -3.7558458 0.95154911 0
4.7500358 -3.6592853 0.94250751 0
4.747973 -3.5599635 0.93260545 0
4.74826 -3.4487178 0.92204356 0
4.7487741 -3.3400047 0.91195399 0
4.7494044 -3.2488718 0.90369326 0
4.7475939 -1.6495409 0.96408266 0
4.7486396 -1.5476568 0.95784408 0
4.7507749 -1.4473466 0.95225817 0
4.7477427 -1.3467222 0.94607478 0
4.7490168 -1.2484691 0.94117415 0
4.7495275 -1.1510451 0.93654764 0
4.7488098 -1.0435725 0.93161595 0
4.747386 -0.94759268 0.92743325 0
4.7484965 -0.85294074 0.92415512 0
4.7495775 -0.7484647 0.92091715 0
4.7498727 -0.64456373 0.91798371 0
4.7501392 -0.5412823 0.9154973 0
4.7490883 -0.44864288 0.91338247 0
4.7473927 -0.35634065 0.91151369 0
4.7477431 -0.25431332 0.91028249 0
4.7480111 -0.15250659 0.90946972 0
4.7480445 -0.050834227 0.90904438 0
4.7480454 0.050791908 0.90904438 0
4.748013 0.1524643 0.90946978 0
4.7477465 0.25427109 0.91028261 0
4.7473969 0.35629845 0.9115141 0
4.749094 0.44860077 0.91338289 0
4.7501464 0.54124022 0.91549766 0
4.7498803 0.64452159 0.91798401 0
4.7495866 0.74842292 0.92091769 0
4.7485075 0.85289896 0.92415583 0
4.7473979 0.94755101 0.92743391 0
4.7488241 1.0435312 0.93161678 0
4.7495427 1.151004 0.93654859 0
4.7490335 1.2484281 0.94117522 0
4.7477603 1.3466814 0.9460758 0
4.7507935 1.4473058 0.95225918 0
4.7486591 1.5476162 0.95784509 0
4.7476158 1.6495007 0.96408403 0
4.7494459 3.2488375 0.90369552 0
4.7488155 3.3399706 0.91195631 0
4.7483039 3.4486852 0.92204607 0
4.7480183 3.559931 0.93260789 0
4.750082 3.6592529 0.94251013 0
4.7461109 3.7558143 0.95155185 0
4.7490158 3.860033 0.96236569 0
1.9678576 0.21604772 -0.10333223 0
1.5894582 0.26944068 -0.10831399 0
1.6765562 0.28827381 -0.10690607 0
1.9668419 0.29394349 -0.10285698 0
1.6952004 0.38857228 -0.10593781 0
1.9657984 0.39529464 -0.10227004 0
1.9664335 0.49011019 -0.10174351 0
1.247317 1.0968435 -0.1076596 0
1.2472768 1.1954323 -0.10725451 0
1.2475392 1.2961329 -0.10693695 0
1.2476507 1.3958775 -0.10673809 0
1.2478597 1.4952687 -0.10666102 0
1.2479906 1.5950373 -0.10672027 0
1.2481977 1.6961997 -0.10692544 0
1.2483306 1.7950586 -0.10727636 0
1.2484912 1.8931555 -0.10777403 0
1.2486821 1.9920125 -0.10842621 0
1.2484772 2.0470788 -0.10885074 0
0.91669875 2.3262923 -0.1153734 0
0.97463763 2.3092535 -0.11447179 0
1.0761517 2.2969434 -0.11318105 0
1.1728735 2.304538 -0.11223064 0
1.2473522 2.3228266 -0.11165813 0
2.3546052 2.3011234 -0.10045873 0
2.3544617 2.3931339 -0.10128348 0
2.3548357 2.4923711 -0.10223649 0
2.3547304 2.5938544 -0.10328528 0
0.60604858 2.6964662 -0.12646203 0
2.3547199 2.6926813 -0.10437244 0
0.59876782 2.7864709 -0.12844414 0
2.3551428 2.7659628 -0.10521239 0
0.61119556 2.8894885 -0.13035378 0
1.1206597 4.1431227 -0.146797 0
1.1499795 4.1418076 -0.14619264 0
0.58541071 4.1763577 -0.15901645 0
0.68528783 4.1701608 -0.15658723 0
0.78662777 4.1639767 -0.15419601 0
0.88434535 4.1579714 -0.15195748 0
0.98404223 4.1517053 -0.14973702 0
1.0764029 4.1462369 -0.14774442 0
1.2453629 1.0972527 -0.037106264 0
1.2453833 1.1958293 -0.039433211 0
1.2457258 1.2965019 -0.041591059 0
1.2459164 1.3962207 -0.043508425 0
1.2461756 1.4955965 -0.04517062 0
1.2463002 1.5953647 -0.046576206 0
1.2465526 1.6965116 -0.047700204 0
1.2467079 1.795362 -0.048504345 0
1.2468686 1.8934538 -0.049002033 0
1.2470373 1.9923069 -0.04920096 0
1.2468116 2.0473704 -0.049214549 0
0.91896415 2.3427403 -0.082935117 0
0.98345333 2.3314109 -0.069060132 0
1.0750334 2.3249998 -0.056781359 0
1.1521438 2.3252118 -0.059983414 0
1.2354531 2.3415322 -0.069607705 0
0.89354622 2.3774717 -0.039758556 0
0.96666902 2.3590987 -0.022661835 0
1.0586777 2.3525419 -0.0026027057 0
1.1951789 2.3496521 -0.029946517 0
0.6666249 2.628109 -0.039749727 0
0.62270707 2.7014685 -0.091731533 0
0.64846808 2.6887634 -0.042663768 0
4.7782822 2.7241762 0.084414072 0
0.61636543 2.7925258 -0.091026127 0
0.63950735 2.7813652 -0.039702103 0
4.7767005 2.7872281 0.084234029 0
0.62279814 2.8693564 -0.089998737 0
0.64515263 2.8899643 -0.056658797 0
4.7776833 2.8831031 0.084134921 0
0.64964503 2.9617853 -0.088097051 0
4.7774453 2.9903362 0.084002852 0
4.7779508 3.0879943 0.083947897 0
4.7777309 3.1865313 0.083894536 0
4.7786932 3.2865038 0.083923675 0
4.7777433 3.3871534 0.083904073 0
4.7779846 3.4894543 0.083968528 0
4.777678 3.5814233 0.084032565 0
4.7787981 3.6869271 0.084202036 0
4.7784929 3.7934871 0.084344245 0
4.7788086 3.8778074 0.084504418 0
4.7621131 -3.1794503 0.15092809 0
4.7637606 -3.1155944 0.14984795 0
4.7671976 -3.0118032 0.14813279 0
4.7667089 -2.906136 0.14624527 0
4.7672057 -2.8039041 0.14447139 0
4.7676315 -2.7037189 0.14274332 0
4.7669601 -2.6046836 0.14100668 0
4.769865 -2.5109682 0.1395146 0
4.771728 -2.4182575 0.13801277 0
4.7726235 -2.3081064 0.13619299 0
4.7723112 -2.1994314 0.13436875 0
4.7712169 -2.1099882 0.13284761 0
4.769279 -2.0216281 0.13132416 0
4.7660069 -1.9169155 0.12949562 0
4.7705417 -1.8206568 0.1281355 0
4.7681985 -1.720946 0.12646034 0
4.7688937 -1.6098465 0.12475014 0
4.7698774 -1.5013043 0.12311396 0
1.2427329 1.0978093 0.057429731 0
1.242838 1.1963637 0.051440336 0
1.2432442 1.2983727 0.047880702 0
1.2430096 1.3967934 0.062639669 0
1.2433125 1.4961613 0.058051318 0
1.2435337 1.5958979 0.054394186 0
1.2437277 1.6970428 0.05171077 0
1.2439573 1.7958726 0.050152674 0
1.2441181 1.8939532 0.049654983 0
1.2442124 1.9927937 0.050210092 0
1.244014 2.0478599 0.050897755 0
0.88593674 2.424752 0.038176764 0
0.96903229 2.395112 0.048303358 0
1.0739781 2.3790309 0.049611069 0
1.1637186 2.3871861 0.051262192 0
0.794339 2.5087328 0.058561809 0
0.85361642 2.4641249 0.071646765 0
0.70754111 2.6113558 0.027538773 0
0.74594939 2.5822315 0.070417918 0
0.68631899 2.6906903 0.037222382 0
0.67475605 2.7965798 0.03430748 0
0.68710518 2.8821797 0.03680101 0
1.240067 1.0983726 0.15334722 0
1.2401887 1.2005045 0.14927521 0
1.240163 1.2966788 0.15848362 0
1.240003 1.3973951 0.17091507 0
1.2403975 1.4967319 0.16334945 0
1.2407027 1.5964435 0.1573983 0
1.2410049 1.6975673 0.15314418 0
1.2411984 1.796392 0.15080898 0
1.2413591 1.8944643 0.15031132 0
1.2414892 1.9933072 0.15164332 0
1.2414104 2.0484042 0.15307598 0
0.98199123 2.4286888 0.12165698 0
1.0708258 2.425318 0.1410313 0
1.1496077 2.4280863 0.13618024 0
0.81236917 2.5318167 0.12164346 0
0.87043899 2.4982262 0.14672121 0
0.96046907 2.4622054 0.1719031 0
1.0305014 2.4554679 0.19677705 0
1.1610581 2.4479933 0.16923161 0
0.78047323 2.5936468 0.14388829 0
0.82379341 2.5474892 0.16325124 0
0.71259254 2.6951051 0.094453305 0
0.74380094 2.691766 0.15698814 0
4.7735643 2.7249656 0.24989109 0
0.70951098 2.7933362 0.10950737 0
0.73149323 2.7865052 0.15639222 0
4.7719483 2.7880101 0.2500788 0
0.72532338 2.9300578 0.08901047 0
0.74134231 2.8808479 0.14979374 0
4.7728653 2.8838718 0.25070682 0
4.7725477 2.9910867 0.25141662 0
4.7729759 3.0887253 0.25222021 0
4.7728515 3.1872931 0.25309026 0
4.7744284 3.2874603 0.25420135 0
4.7733769 3.3880966 0.25521788 0
4.7735052 3.4903791 0.25643939 0
4.7730951 3.5823281 0.25758368 0
4.7740884 3.6878035 0.25910538 0
4.7736535 3.7943313 0.26063204 0
4.7732844 3.8905125 0.26210058 0
4.7735581 3.9761226 0.26351857 0
4.7555399 -3.1780112 0.38991383 0
4.7571669 -3.1140988 0.38723159 0
4.7605686 -3.0102177 0.38295272 0
4.7600393 -2.9044583 0.37838489 0
4.7605309 -2.8021781 0.37407461 0
4.761117 -2.7021084 0.36990213 0
4.7606263 -2.6032078 0.365753 0
4.7636991 -2.5096133 0.36209148 0
4.7657304 -2.4170198 0.35844594 0
4.7665143 -2.3067255 0.35404688 0
4.7662411 -2.1980438 0.34969914 0
4.7653103 -2.1087105 0.34611961 0
4.7635374 -2.0204568 0.342567 0
4.7604628 -1.9158673 0.33833966 0
4.7651639 -1.8197079 0.33501267 0
4.7622719 -1.7195385 0.33107266 0
4.7631536 -1.6085545 0.32705322 0
4.7643185 -1.5001197 0.32321391 0
1.2373685 1.0989282 0.25165507 0
1.2375542 1.1931013 0.24113587 0
1.2376907 1.2981306 0.24898273 0
1.2381266 1.3977759 0.23765063 0
1.238624 1.4970801 0.2282636 0
1.2388245 1.5968107 0.22085187 0
1.2392986 1.6978874 0.21567339 0
1.2392604 1.7967228 0.21277869 0
1.2394211 1.8947686 0.21228117 0
1.2397832 1.9936272 0.21417253 0
1.2392716 2.0486429 0.21591634 0
1.0753273 2.4586067 0.20854683 0
1.1437229 2.4748662 0.2282331 0
0.75139576 2.7942314 0.19914486 0
0.76641673 2.8595517 0.21610083 0
4.7686458 2.7257228 0.41593188 0
4.7669721 2.7887523 0.41648412 0
4.7677727 2.8845851 0.41783273 0
4.7688284 2.9921343 0.41955143 0
4.7691078 3.0897601 0.42120478 0
4.768652 3.1882553 0.42296076 0
4.7693505 3.2881732 0.42503059 0
4.7681389 3.3887591 0.42707443 0
4.7680907 3.4909818 0.42944339 0
4.767519 3.5828707 0.43165886 0
4.7697511 3.6888382 0.43469304 0
4.7690935 3.7953031 0.43759128 0
4.768517 3.8914187 0.44035727 0
4.769062 3.9895284 0.44343951 0
4.7698164 4.0768056 0.44632113 0
4.750813 -3.0911145 0.62399554 0
4.7542524 -3.0089767 0.61864972 0
4.7539229 -2.9033663 0.61141837 0
4.7543259 -2.8009396 0.60454178 0
4.7551794 -2.701082 0.59794164 0
4.7542591 -2.6017172 0.59128869 0
4.7572317 -2.5079899 0.58541977 0
4.7595353 -2.4156165 0.57964957 0
4.7603407 -2.3052998 0.57266504 0
4.7602396 -2.1967299 0.56580186 0
4.7595825 -2.107599 0.56018275 0
4.7576885 -2.019212 0.55456209 0
4.7541351 -1.9141949 0.54784203 0
4.7590942 -1.8182238 0.54256517 0
4.7572365 -1.7188274 0.53652251 0
4.7575164 -1.6073518 0.53008509 0
4.7586737 -1.498883 0.52401924 0
4.7644758 2.7266345 0.5830726 0
4.7637768 2.7898681 0.58414459 0
4.7643971 2.8856945 0.58620226 0
4.7637444 2.9928577 0.58856809 0
4.7638335 3.0904305 0.59106052 0
4.7630005 3.1667747 0.59303796 0
4.7487059 -3.1763082 0.62971675 0
4.7496886 -3.1334388 0.62682545 0
4.7634416 3.2219968 0.59470594 0
4.7636538 3.2887065 0.59677732 0
4.7642741 3.3898926 0.60015303 0
4.7639565 3.4920535 0.6036517 0
4.7631369 3.5838759 0.60692215 0
4.7636266 3.6891794 0.61110628 0
4.7646823 3.7963552 0.61567533 0
4.7638144 3.8923714 0.61972034 0
4.7640471 3.9903634 0.62419796 0
4.7641797 4.0899162 0.62892687 0
4.7643156 4.1783838 0.6332888 0
4.7481761 -2.6005232 0.81823701 0
4.7511277 -2.5067384 0.81014824 0
4.7530217 -2.413944 0.80212462 0
4.7545137 -2.3042114 0.79266602 0
4.754179 -2.195389 0.78320229 0
4.7539043 -2.1065524 0.7755723 0
4.7511258 -2.0173857 0.7677083 0
4.7488174 -1.9133631 0.75875932 0
4.7530255 -1.8167634 0.75134861 0
4.7510095 -1.7172178 0.74305511 0
4.7522297 -1.6064278 0.73441285 0
4.752821 -1.4975132 0.7259981 0
4.7603993 2.7275743 0.7516982 0
4.7585263 2.7905807 0.7529614 0
4.7589383 2.8863528 0.7557162 0
4.7580447 2.9934444 0.75888968 0
4.7592301 3.091305 0.76246023 0
4.7596383 3.1900516 0.76622969 0
4.7598033 3.2898338 0.77028269 0
4.7580614 3.3902647 0.774333 0
4.7587342 3.4927671 0.77919579 0
4.7589073 3.5849614 0.78375435 0
4.7587833 3.6782584 0.78855777 0
4.7414904 -3.1742241 0.87087059 0
4.7444577 -3.1116939 0.86523849 0
4.7474556 -3.0072708 0.85569572 0
4.7472515 -2.9017332 0.84578204 0
4.7482643 -2.799875 0.83645284 0
4.7487082 -2.6995637 0.82729197 0
4.7598944 3.7376738 0.7919395 0
4.7589474 3.7968817 0.79506636 0
4.7589931 3.8932977 0.80061901 0
4.7588291 3.9911311 0.80646586 0
4.7593126 4.0908766 0.8127898 0
4.7590775 4.1919665 0.81932843 0
4.7579184 4.2813711 0.82515466 0
4.7453318 -2.0162365 0.98280483 0
4.742887 -1.9120692 0.97138858 0
4.7472568 -1.8155607 0.96196604 0
4.7456207 -1.7162864 0.95150852 0
4.7463713 -1.6050961 0.94039369 0
4.7473316 -1.4964352 0.92976975 0
4.754539 2.7281954 0.92183971 0
4.7525382 2.7911618 0.92344737 0
4.7540092 2.8871593 0.92717957 0
4.7547712 2.9946547 0.93158329 0
4.7542973 3.0921013 0.93570006 0
4.7530546 3.1903801 0.94006622 0
4.7560868 3.2910297 0.94581771 0
4.7539678 3.3913701 0.95083559 0
4.7529244 3.4932861 0.95652705 0
1.1664317 -1.7195976 -0.13648726 0
1.2601044 -1.6840075 -0.13509732 0
1.3551834 -1.6479944 -0.13375977 0
1.4468549 -1.6132267 -0.13253759 0
1.5403451 -1.5776207 -0.13135526 0
1.6362606 -1.541374 -0.13021412 0
1.7022778 -1.5175495 -0.12948108 0
1.7330368 -1.5045305 -0.12912448 0
1.7958314 -1.4801676 -0.12844424 0
1.526468 -1.1360667 -0.12476426 0
1.5993438 -1.1092356 -0.12406008 0
1.6950343 -1.0741085 -0.12319274 0
1.7895343 -1.0390809 -0.12239456 0
1.8831258 -1.0046371 -0.12166387 0
1.9755349 -0.97067904 -0.12099547 0
2.0733755 -0.93549764 -0.12034879 0
2.1475632 -0.90639663 -0.11986308 0
1.8732793 -0.70226234 -0.11818476 0
1.029846 -0.18884763 -0.11426985 0
0.96603763 -0.11620846 -0.11362852 0
0.91532373 -0.030023664 -0.11286606 0
0.89430797 0.017912179 -0.11245691 0
0.94381213 0.44140619 -0.11048523 0
0.9507522 0.45399559 -0.11048198 0
0.98862582 0.50226933 -0.11050312 0
1.0632926 0.57427812 -0.11058691 0
2.0825577 0.88690245 -0.1112593 0
1.1124927 0.60578895 -0.11064336 0
1.1512432 0.62710679 -0.11068652 0
1.2102721 0.65398645 -0.1107437 0
2.0619264 0.95290923 -0.11143666 0
2.0316856 1.0495924 -0.1117634 0
2.0013299 1.1464816 -0.11217608 0
1.9722953 1.2396386 -0.11265197 0
1.9427748 1.3337581 -0.11321266 0
1.9128877 1.4293289 -0.1138598 0
1.882305 1.5267587 -0.11460102 0
1.8637155 1.588536 -0.11510582 0
1.9578019 1.6878307 -0.11565045 0
1.936592 1.7542781 -0.1162506 0
1.4581035 1.7469528 -0.11788361 0
1.5389402 1.750576 -0.1175772 0
1.6364024 1.770802 -0.11738762 0
1.7112174 1.7980163 -0.11736532 0
1.9069085 1.8485489 -0.11715347 0
1.2588873 1.7997031 -0.11944458 0
1.325038 1.7742388 -0.11881094 0
1.407645 1.7514343 -0.11815815 0
1.8867726 1.91293 -0.11780327 0
1.2006351 1.8385161 -0.12023906 0
1.106396 1.9252717 -0.12190543 0
1.1436536 1.8853639 -0.1211567 0
1.0561826 2.0004454 -0.12322752 0
1.0146598 2.0886624 -0.12471136 0
0.99232376 2.1849022 -0.12618925 0
0.96680331 2.2962642 -0.12794387 0
0.40600103 2.4603665 -0.13684672 0
0.48118097 2.4797249 -0.13611759 0
0.57469267 2.5040905 -0.13526784 0
0.67220795 2.5291188 -0.1344367 0
0.76864439 2.5541091 -0.1336748 0
0.86383247 2.5788245 -0.13297586 0
0.96417463 2.6056256 -0.13230154 0
1.0416392 2.6239576 -0.13177998 0
0.29399997 2.8617315 -0.14464505 0
0.35674727 2.8776767 -0.14395435 0
0.42623413 2.8942654 -0.14319861 0
-0.22663391 2.7326205 -0.15149505 0
-0.12949079 2.7567153 -0.1500679 0
-0.030953586 2.7812629 -0.14869311 0
0.064076662 2.8048935 -0.14743476 0
0.16107607 2.8288703 -0.14621449 0
0.25083876 2.8514054 -0.14514786 0
1.0286396 -0.18885365 -0.054508384 0
0.96352267 -0.11483884 -0.041651037 0
0.91406929 -0.030103847 -0.045285061 0
0.89315575 0.017808661 -0.047565822 0
0.94264609 0.44127697 -0.046867535 0
0.94955778 0.45386267 -0.046311084 0
0.9874022 0.50212884 -0.043302 0
1.0619937 0.57412589 -0.037423365 0
2.0812337 0.88674182 -0.037614442 0
1.111474 0.60566926 -0.052959327 0
1.1501987 0.62698501 -0.05077751 0
1.209172 0.65385813 -0.047504395 0
2.0606046 0.95274633 -0.037882749 0
2.030365 1.049426 -0.038209531 0
2.0000079 1.1463115 -0.038453553 0
1.9709682 1.2394642 -0.03860398 0
1.9414414 1.3335795 -0.038682386 0
1.911544 1.4291456 -0.03868128 0
1.8809485 1.5265701 -0.038602583 0
1.8623493 1.5883442 -0.038490668 0
1.5539875 1.7839854 -0.045461632 0
1.633261 1.8063931 -0.042787921 0
1.6985155 1.8326598 -0.040474385 0
1.3403819 1.8048123 -0.051411025 0
1.4238083 1.7869468 -0.049255516 0
1.499796 1.7821736 -0.047093462 0
1.7431519 1.8586979 -0.03878111 0
1.2199074 1.8640939 -0.053915016 0
1.2778484 1.8294017 -0.052824706 0
1.1501791 1.9241164 -0.054877497 0
1.0834858 2.0136621 -0.055196926 0
1.1103148 1.9693923 -0.055219352 0
1.047251 2.1034818 -0.054631177 0
1.0283048 2.1873739 -0.053679928 0
1.0263951 2.2414567 -0.052793328 0
1.0297954 2.2988026 -0.051710121 0
1.064467 2.4202623 -0.048724279 0
1.0265927 -0.18885121 0.045772653 0
0.96449113 -0.1183095 0.049871713 0
0.9121787 -0.030230433 0.057226494 0
0.8912009 0.017737493 0.050836653 0
0.94102395 0.44109219 0.049663521 0
0.94783372 0.45366877 0.051040351 0
0.98491025 0.50112486 0.057863452 0
1.0602462 0.5739125 0.054789051 0
2.0792758 0.88650864 0.073115095 0
1.109705 0.60545534 0.043869473 0
1.1483941 0.62676895 0.049790941 0
1.2072762 0.65363097 0.058655955 0
2.0586624 0.95251447 0.072711244 0
2.0284238 1.0491908 0.072384447 0
1.9980414 1.1460638 0.072391704 0
1.9689534 1.2391927 0.072726309 0
1.9393568 1.3332707 0.073366731 0
1.9093689 1.428782 0.0743341 0
1.8789606 1.5263183 0.075671144 0
1.8602737 1.5880413 0.07670214 0
1.3578241 1.8316364 0.018383134 0
1.4199984 1.8298128 0.038129233 0
1.5107428 1.8383722 0.063469157 0
1.6085371 1.8615739 0.075576514 0
1.7109139 1.8905368 0.039790608 0
1.2330604 1.8956501 0.014728948 0
1.2974532 1.872195 0.043067314 0
1.3809119 1.8647079 0.091564149 0
1.1905533 1.9453522 0.036774851 0
1.2431996 1.9308438 0.086046249 0
1.1366636 2.0236845 0.049269497 0
1.0979341 2.1134095 0.054247078 0
1.0809727 2.2097979 0.059385665 0
1.0797288 2.3078108 0.052385204 0
4.9104748 3.6641588 0.081599735 0
4.8913765 3.729161 0.08176697 0
4.8617392 3.8189561 0.081914365 0
4.8333602 3.9107921 0.082151003 0
4.7999763 4.0164905 0.082430303 0
4.7713852 4.1108122 0.082742468 0
4.7410588 4.2051964 0.083028018 0
4.7111025 4.3012753 0.083370462 0
4.6885185 4.369823 0.083593257 0
1.0245302 -0.18886203 0.14802559 0
0.96107227 -0.11642385 0.14724289 0
0.91053426 -0.030329034 0.14503862 0
0.88985407 0.017540187 0.13520651 0
0.93948841 0.44092345 0.13234976 0
0.94652259 0.45351747 0.13450786 0
0.98511416 0.50289822 0.14490168 0
1.0587714 0.57375443 0.14950208 0
2.0772536 0.88626087 0.18455328 0
1.1074569 0.60517651 0.16291855 0
1.1465729 0.626553 0.15239428 0
1.2053738 0.65340674 0.16696841 0
2.0566676 0.95226967 0.18401587 0
2.0264308 1.0489407 0.18368901 0
1.9960022 1.1457908 0.1839439 0
1.9668264 1.2388752 0.18475649 0
1.9371041 1.332881 0.18610545 0
1.9078066 1.4287695 0.18816137 0
1.8768737 1.5260103 0.1906659 0
1.858031 1.5876337 0.19260284 0
1.6845334 1.914444 0.11858042 0
1.3247391 1.9223067 0.16264795 0
1.3843241 1.9029062 0.16660872 0
1.4923071 1.893034 0.17651895 0
1.5844016 1.9134107 0.18784124 0
1.6510984 1.9519863 0.19822182 0
1.2650578 1.9604907 0.16080274 0
1.1751647 2.0629168 0.16315259 0
1.2041072 2.0188582 0.16113433 0
1.1475222 2.1364288 0.16853572 0
1.1349674 2.1947112 0.17370383 0
1.1377764 2.2455823 0.17939854 0
1.14132 2.3385096 0.16299477 0
1.0232207 -0.18884718 0.21102057 0
2.0757523 0.88605893 0.25960404 0
1.1452017 0.62636292 0.21556111 0
1.2039442 0.65320683 0.23365314 0
2.0551934 0.95206726 0.25897968 0
2.0249598 1.0487286 0.25865278 0
1.9944891 1.1455517 0.25906906 0
1.9652318 1.2385883 0.26019323 0
1.9363048 1.3329866 0.26218349 0
1.9061713 1.4284317 0.2647624 0
1.8754292 1.5257864 0.2681317 0
1.8571044 1.587749 0.27079782 0
1.3958094 1.9380291 0.24513891 0
1.4773836 1.932457 0.25452149 0
1.5759524 1.9538698 0.26947436 0
1.6509033 1.9950657 0.28383589 0
1.2868732 1.9901189 0.23879164 0
1.3413258 1.9576131 0.24102408 0
1.2273914 2.0534892 0.24035692 0
1.1843598 2.1447508 0.24791637 0
1.17772 2.2494149 0.26147985 0
1.2113411 2.3627038 0.2804127 0
4.9073229 3.66399 0.28726202 0
4.8881655 3.7289634 0.28815827 0
4.8584518 3.8187203 0.28925616 0
4.829987 3.9105101 0.2905708 0
4.7965064 4.0161519 0.29212904 0
4.7678232 4.1104178 0.29366741 0
4.7374063 4.2047434 0.29518458 0
4.707356 4.3007579 0.29685304 0
4.6770391 4.39818 0.29863504 0
4.6504607 4.4823914 0.30020994 0
2.0738432 0.88584673 0.37401757 0
2.0533345 0.95187026 0.37326711 0
2.0230999 1.048535 0.37294021 0
1.9925377 1.1453271 0.3735902 0
1.9638053 1.2386014 0.37532681 0
1.9339182 1.332548 0.37786618 0
1.9044989 1.4280858 0.34218335 0
1.8741659 1.525667 0.34649542 0
1.8549855 1.5870767 0.34959856 0
1.4870062 1.9722857 0.33855712 0
1.5583534 1.9928925 0.35220841 0
1.359329 2.0070329 0.34710938 0
1.4379851 1.9737821 0.33157256 0
1.2618889 2.0719869 0.32230651 0
1.3113594 2.0678051 0.39330056 0
1.2226233 2.153913 0.33051372 0
1.2143501 2.2370956 0.34320676 0
1.2233328 2.288146 0.35280362 0
1.2447822 2.3419662 0.36438358 0
2.0713298 0.88548756 0.49053848 0
2.0508869 0.95151079 0.48966718 0
2.0206592 1.0481523 0.48934031 0
1.9899966 1.1448801 0.49021459 0
1.9616698 1.2383194 0.49262995 0
1.9318175 1.3322644 0.49592334 0
1.9027292 1.4279904 0.46072131 0
1.8719394 1.5253237 0.4662118 0
1.8532306 1.5870395 0.47040841 0
1.4420569 2.0319955 0.44994563 0
1.5410614 2.0331707 0.43770805 0
1.3437033 2.1023183 0.49049765 0
1.3993881 2.0701857 0.50175774 0
1.2818333 2.1638932 0.45482126 0
1.2562956 2.2504079 0.43266973 0
4.9033594 3.6632795 0.49360779 0
4.88411 3.728189 0.49522731 0
4.85428 3.8178599 0.49726814 0
4.8256845 3.9095492 0.49965215 0
4.7920513 4.015069 0.50247937 0
4.7637186 4.1096072 0.50529844 0
4.734127 4.2046032 0.50816494 0
4.7039046 4.300499 0.51114798 0
4.6734104 4.39779 0.51432073 0
4.6421385 4.4959807 0.51760203 0
4.6146078 4.5809031 0.52050418 0
1.4765226 2.05761 0.51372838 0
1.5234116 2.0741792 0.52620071 0
1.2964839 2.2154145 0.51501936 0
1.2979335 2.2526801 0.52360833 0
4.8987927 3.6621723 0.70108187 0
4.8794155 3.7269835 0.70341527 0
4.851562 3.8180523 0.70674974 0
4.8227534 3.909615 0.71018761 0
4.7888727 4.0149765 0.71426553 0
4.759819 4.1089654 0.71821988 0
4.7290397 4.2030044 0.72216403 0
4.7006197 4.3003969 0.72680706 0
4.6698737 4.3974957 0.73135149 0
4.6383467 4.495482 0.7360521 0
4.6105967 4.5802183 0.74021024 0
4.5850649 4.6683683 0.74502915 0
4.5632496 4.7424541 0.74913955 0
4.8962264 3.6624365 0.91068071 0
4.8766608 3.7271395 0.91371346 0
4.8464255 3.8165321 0.91759753 0
4.8173838 3.907897 0.92207247 0
4.7858992 4.0150619 0.9279635 0
4.7565451 4.1088438 0.93309456 0
4.7254734 4.2026677 0.93822128 0
4.6980572 4.283462 0.94270945 0
3.820951 7.1069326 0.91692549 0
3.8059309 7.1494622 0.92040795 0
0.66219246 0.38932857 -0.024724171 0
0.71339238 0.41183186 -0.025007069 0
0.80311209 0.4503274 -0.025538772 0
0.89424932 0.48956907 -0.026152685 0
0.98712325 0.52964044 -0.026849594 0
1.0771813 0.5684495 -0.027591866 0
1.1697636 0.60805964 -0.028416201 0
1.2646961 0.64922786 -0.029337034 0
1.3181798 0.67302448 -0.029892009 0
1.0431333 0.98477119 -0.034377988 0
1.1231616 1.0187864 -0.03525399 0
1.2118959 1.0557828 -0.036268957 0
1.3043585 1.0947773 -0.037394457 0
1.4010514 1.1360054 -0.038641211 0
1.4921439 1.1739814 -0.039850906 0
1.5820925 1.2114427 -0.0410925 0
1.6425585 1.2384017 -0.041985895 0
1.7571834 1.5007048 -0.048388321 0
1.3445878 1.4107862 -0.043872897 0
1.3966603 1.4310286 -0.044604566 0
1.4686785 1.4745243 -0.045972202 0
1.736343 1.5588108 -0.049578585 0
1.4496316 1.559201 -0.047714364 0
1.7025536 1.6519778 -0.051517427 0
1.4324604 1.6108565 -0.048759069 0
1.6700081 1.7458156 -0.053526621 0
1.6375158 1.8404515 -0.055607345 0
1.6043026 1.9359832 -0.057760905 0
1.5725125 2.0271513 -0.059872355 0
1.9353439 2.1624079 -0.066247381 0
1.5422544 2.1144609 -0.061951645 0
1.9015795 2.2604375 -0.068712652 0
1.8690265 2.355448 -0.071167514 0
1.8376263 2.4478872 -0.073621422 0
1.8053718 2.5430918 -0.076217934 0
1.7717226 2.641109 -0.078961775 0
1.7406476 2.7325802 -0.081594653 0
1.7098403 2.822716 -0.084256969 0
1.6762669 2.9212654 -0.087247498 0
1.6428328 3.019062 -0.09029562 0
0.38847101 2.679728 -0.070032403 0
0.460244 2.6882262 -0.070813425 0
-0.14277256 3.2454026 -0.091582641 0
-0.13307732 3.2913032 -0.093622468 0
0.29616821 4.3960123 -0.14211135 0
-0.2617569 4.5319376 -0.15142284 0
-0.20127285 4.5513558 -0.15186678 0
-0.10772133 4.5816956 -0.15261486 0
-0.010037422 4.6138105 -0.15347822 0
0.086459517 4.6455011 -0.15438731 0
0.18149698 4.676281 -0.15531643 0
0.27506506 4.7073126 -0.15631177 0
0.36647618 4.7371736 -0.1573066 0
0.42003787 4.7535319 -0.15785483 0
-0.71270698 4.8531733 -0.17063642 0
-0.64024895 4.8764277 -0.17092434 0
-0.54744071 4.9055085 -0.17131235 0
-0.45250738 4.9361062 -0.17181186 0
-0.35516369 4.9671535 -0.17237043 0
-0.26701868 4.9945455 -0.17289548 0
-0.9195202 4.7875667 -0.17007093 0
-0.83126509 4.8154335 -0.17026794 0
-0.75572413 4.8400254 -0.17051554 0
4.7612591 1.024515 0.13204867 0
4.7629352 1.085235 0.13007975 0
4.7627449 1.1461674 0.12806299 0
4.7631459 1.2065976 0.12609217 0
4.7639437 1.3027092 0.12298343 0
4.7644353 1.3863261 0.12029637 0
4.7647238 1.4457754 0.11839773 0
4.7651629 1.5167809 0.11614859 0
4.7658763 1.6227623 0.11282243 0
4.766232 1.6931416 0.11062821 0
4.7667503 1.7515528 0.10882791 0
4.7673082 1.8447837 0.10596836 0
4.7678614 1.9377058 0.10314647 0
4.7680941 1.9956704 0.10139637 0
4.7685757 2.0535161 0.099669836 0
4.7691083 2.1575074 0.096583396 0
4.7696567 2.2382863 0.094212182 0
4.7700491 2.2959509 0.092534162 0
4.7705703 2.3766685 0.090203039 0
4.7712507 2.4804816 0.087236896 0
4.771976 2.5959599 0.083977751 0
4.7724724 2.7000818 0.081071883 0
4.7730575 2.7812629 0.078836389 0
4.7736487 2.8393879 0.077253714 0
4.7739372 2.9092817 0.075355105 0
4.7747035 3.0145257 0.072534509 0
4.7752838 3.0849514 0.070666656 0
4.7751408 3.1437945 0.069103882 0
4.7759356 3.2384648 0.066638701 0
4.7769928 3.333765 0.06419275 0
4.7768326 3.3934591 0.062651947 0
4.7767115 3.4534688 0.061117545 0
4.7780242 3.5503259 0.058703233 0
4.7764473 3.6228676 0.056844451 0
0.38791037 2.6816738 -0.0037932545 0
0.46071118 2.6906693 0.00043920206 0
-0.14352018 3.2470744 -0.025342114 0
-0.13397187 3.2927752 -0.024168199 0
-0.11015677 3.3710988 -0.0031320467 0
4.749877 -0.84985614 0.19890624 0
4.7479811 -0.80145645 0.1970188 0
4.7528486 -0.72656047 0.19430238 0
4.7503057 -0.61761308 0.19013155 0
4.7495012 -0.55658221 0.18782124 0
4.753397 -0.49880815 0.18575981 0
4.7556353 -0.3964318 0.18200858 0
4.7550874 -0.29413354 0.17821318 0
4.7537904 -0.1931138 0.17447121 0
4.755199 -0.080871344 0.17041428 0
4.7563438 0.0021748543 0.16743454 0
4.7562895 0.057321072 0.16544522 0
4.75666 0.139027 0.16252467 0
4.7590752 0.24586153 0.15878099 0
4.7600737 0.35182405 0.15506181 0
4.7601013 0.456761 0.15138356 0
4.7594161 0.54775906 0.14819929 0
4.7587442 0.59942019 0.14639401 0
4.7595873 0.66293633 0.14423062 0
4.7603488 0.7764678 0.14037159 0
4.7604051 0.85162425 0.13782346 0
4.7611732 0.90115023 0.13617462 0
4.7620244 0.97511983 0.13371688 0
4.7801514 3.6849058 0.055403713 0
4.7782187 3.7705827 0.053244829 0
4.7816544 3.8708658 0.050896708 0
4.7801814 3.9329991 0.049359865 0
4.7802167 3.9960513 0.047854744 0
4.7832279 4.0731292 0.046106357 0
0.38695866 2.6845915 0.096712045 0
0.46124393 2.6937375 0.090479128 0
-0.14461082 3.2497134 0.075113364 0
-0.13671088 3.2900259 0.073109977 0
-0.11130059 3.3722737 0.072622888 0
4.7579513 0.46251714 0.34728011 0
4.7574492 0.55341971 0.34301934 0
4.7568827 0.60502899 0.34061339 0
4.7578473 0.66848958 0.33779061 0
4.758153 0.78212953 0.33273378 0
4.7581739 0.85727346 0.32943425 0
4.7590246 0.90676141 0.32734427 0
4.75983 0.99301684 0.32371196 0
4.7610941 1.0907198 0.31969854 0
4.7610097 1.1516141 0.31718498 0
4.7610679 1.2121074 0.31473714 0
4.7615638 1.3082591 0.31093577 0
4.7621741 1.3918301 0.30771163 0
4.7625475 1.4512497 0.30545586 0
4.7630858 1.5222239 0.30281526 0
4.7639432 1.6281648 0.2989651 0
4.7643957 1.698522 0.29645422 0
4.7649899 1.7569178 0.29442823 0
4.7651806 1.8501748 0.2912094 0
4.7656794 1.943089 0.28810644 0
4.7659779 2.0010405 0.28621009 0
4.7665205 2.058876 0.28437245 0
4.7671652 2.1628528 0.28112748 0
4.7677979 2.2436254 0.27868292 0
4.7682419 2.3012879 0.27698129 0
4.7688446 2.3820057 0.27465373 0
4.7696176 2.4858241 0.27175513 0
4.7704401 2.6013143 0.26865199 0
4.771018 2.7054524 0.26595488 0
4.7706466 2.7865701 0.26387733 0
4.7712755 2.8446977 0.26248395 0
4.7716017 2.9145951 0.2608296 0
4.7724242 3.0198483 0.25844705 0
4.7730379 3.0902822 0.25690994 0
4.7729206 3.1491332 0.25563127 0
4.7737541 3.2438183 0.25370145 0
4.774847 3.3391376 0.25186041 0
4.7747073 3.3988438 0.25069702 0
4.7746019 3.4588664 0.24957015 0
4.7759409 3.555747 0.24790868 0
4.7743783 3.628305 0.24656215 0
4.7780962 3.6903639 0.24575904 0
4.7761755 3.776062 0.24427925 0
4.7796221 3.8763778 0.24297252 0
4.7781534 3.9385283 0.24198696 0
4.7781897 4.0015993 0.24112019 0
4.7812018 4.0787039 0.24027739 0
0.38636774 2.6871712 0.18290424 0
0.46181232 2.6969044 0.18321697 0
-0.14561456 3.2518029 0.16110845 0
-0.13483346 3.301609 0.16108091 0
-0.1127162 3.3738916 0.1694534 0
4.7475977 -0.84350908 0.41444516 0
4.7460504 -0.79534364 0.41165048 0
4.7508297 -0.72042191 0.40773121 0
4.7481346 -0.61143327 0.40155721 0
4.7472434 -0.55037999 0.39816508 0
4.7510686 -0.49259114 0.39524126 0
4.7532969 -0.39025271 0.38986588 0
4.7529855 -0.2881217 0.38442823 0
4.7515178 -0.18705869 0.3790575 0
4.7527409 -0.074776053 0.37333795 0
4.7538171 0.00826478 0.3691757 0
4.7538757 0.063335896 0.36640847 0
4.7544141 0.14493608 0.36238009 0
4.7570405 0.2516464 0.35729951 0
4.7578516 0.35764349 0.3522386 0
4.7554336 0.3767668 0.54929495 0
4.75597 0.46823001 0.54389721 0
4.7553759 0.5591327 0.53853768 0
4.7541013 0.61096382 0.53544521 0
4.75528 0.67432785 0.53197998 0
4.7566547 0.78760278 0.52585536 0
4.7557068 0.8630079 0.52169609 0
4.7567139 0.91243494 0.51917756 0
4.7578039 0.99858928 0.51480997 0
4.7590179 1.0962781 0.50998878 0
4.7580342 1.1573652 0.50687695 0
4.7587109 1.2177001 0.50402772 0
4.7599397 1.3136749 0.49961814 0
4.7608056 1.3971871 0.495877 0
4.7605991 1.4567016 0.49319923 0
4.7605662 1.527756 0.49010327 0
4.7617006 1.6336302 0.48575094 0
4.7623358 1.7039487 0.48293799 0
4.7630758 1.762319 0.4806976 0
4.7634101 1.8555491 0.4771437 0
4.7635684 1.948485 0.4737258 0
4.7640018 2.0064194 0.47169405 0
4.7646675 2.0642433 0.46975508 0
4.7655411 2.1682057 0.4663704 0
4.7663412 2.2489746 0.46386594 0
4.7668934 2.3066387 0.46214968 0
4.7659998 2.3873587 0.45967776 0
4.7669415 2.4911633 0.45686147 0
4.7679415 2.6066465 0.45392999 0
4.7686658 2.7107863 0.45145509 0
4.7694259 2.7919912 0.44966823 0
4.7701402 2.8501387 0.44847181 0
4.7705569 2.9200618 0.44707024 0
4.7711678 3.0253143 0.4451057 0
4.7704844 3.0955906 0.44377747 0
4.7704191 3.1544499 0.44278845 0
4.7713389 3.2491536 0.44140345 0
4.7725091 3.3444953 0.44017646 0
4.7724099 3.4042151 0.43939546 0
4.7723432 3.4642532 0.4386811 0
4.7737422 3.5611639 0.43778074 0
4.7722139 3.6337409 0.43695152 0
4.7759662 3.6958251 0.43679172 0
4.7740746 3.7815478 0.43599635 0
4.777555 3.8819022 0.43573859 0
4.7760992 3.9440718 0.43530774 0
4.7761474 4.007165 0.43508312 0
4.7791705 4.0843005 0.43515083 0
4.7454185 -0.83720863 0.63077414 0
4.7433271 -0.78873622 0.62698072 0
4.7479343 -0.71375096 0.62183595 0
4.7462845 -0.60541749 0.61379099 0
4.7452044 -0.54428232 0.60929221 0
4.7488742 -0.48642886 0.6054858 0
4.7512555 -0.38421047 0.59849811 0
4.750669 -0.28198171 0.59136689 0
4.749166 -0.18094587 0.58436364 0
4.7509341 -0.068965793 0.57704765 0
4.7518449 0.014123321 0.57168037 0
4.752142 0.069071054 0.56815499 0
4.7520647 0.15090489 0.56293464 0
4.7547746 0.25754178 0.55651248 0
4.7560868 0.32367396 0.55256748 0
4.7536387 0.3692596 0.74922299 0
4.7540236 0.47396088 0.74172145 0
4.7525163 0.56515098 0.73512572 0
4.7524409 0.61655378 0.73157489 0
4.7534804 0.67994583 0.72742569 0
4.7539897 0.79345644 0.7200188 0
4.7548451 0.86831331 0.71532941 0
4.7547789 0.91803241 0.71221089 0
4.7556257 1.0042325 0.70704705 0
4.7566452 1.1019382 0.70138866 0
4.756032 1.162922 0.69779116 0
4.756989 1.2231824 0.69453382 0
4.7581325 1.3191558 0.68944836 0
4.757782 1.4028811 0.68499821 0
4.7585783 1.4621997 0.68207633 0
4.7596145 1.5330694 0.67870927 0
4.7590237 1.6391865 0.67359334 0
4.7599282 1.7094505 0.67050123 0
4.76088 1.7677844 0.66806459 0
4.7617874 1.8609426 0.66424209 0
4.7613983 1.9539174 0.66045511 0
4.762032 2.0118294 0.65830541 0
4.7628808 2.0696383 0.65628123 0
4.7640977 2.1735849 0.65278691 0
4.7628522 2.2544017 0.64993864 0
4.763546 2.3120456 0.64822042 0
4.7645359 2.3927488 0.64594728 0
4.7657557 2.4965687 0.64323938 0
4.7665777 2.6120586 0.64044583 0
4.765646 2.7161093 0.63796782 0
4.766571 2.7973154 0.6364271 0
4.7674022 2.8554678 0.63543957 0
4.7679429 2.9253993 0.63430339 0
4.7690797 3.0307183 0.63284129 0
4.7698927 3.1012034 0.63199466 0
4.7699175 3.160099 0.63130563 0
4.7709837 3.2548678 0.63048267 0
4.7698512 3.3498278 0.6295709 0
4.7698169 3.4095631 0.62918091 0
4.7698083 3.4696176 0.62888712 0
4.7713008 3.5665605 0.62876165 0
4.7698255 3.6391582 0.62845814 0
4.773632 3.7012708 0.62895095 0
4.7717881 3.7870204 0.62884915 0
4.7753243 3.8874168 0.62965262 0
4.7738914 3.9496064 0.6297825 0
4.7739587 4.012723 0.63020629 0
4.7770028 4.0898905 0.63119274 0
