# .PCD v0.7 - Point Cloud Data file format
VERSION 0.7
FIELDS x y z intensity
SIZE 4 4 4 4
TYPE F F F F
COUNT 1 1 1 1
WIDTH 1380
HEIGHT 1
VIEWPOINT 0 0 0 1 0 0 0
POINTS 1380
DATA ascii
26.200893 -0.56904936 3.1774035 0
4.0518699 -5.2049255 -0.53262579 0
4.561451 -5.124928 -0.53350472 0
4.3330593 -5.0874171 -0.50566149 0
4.7942891 -4.9312496 -0.4843508 0
4.5631046 -4.9027319 -0.45685214 0
26.266651 0.036724091 3.2200747 0
26.318226 0.64548969 3.2607105 0
26.345163 1.256371 3.2985713 0
26.334055 1.8673024 3.3326545 0
26.280594 2.4758523 3.3625383 0
26.232761 3.0855391 3.3915431 0
26.169712 3.6943913 3.4181991 0
24.792337 9.0199833 3.5384426 0
24.551395 9.5831051 3.5381923 0
24.293295 10.138127 3.5351765 0
24.043896 10.69599 3.5315599 0
23.501255 11.113186 3.501708 0
0.80662394 6.4593186 -0.33967498 0
0.50873488 6.4381523 -0.37697226 0
0.96408492 6.5279369 -0.33898756 0
23.170742 11.622169 3.4883654 0
0.66418231 6.93715 -0.30463308 0
0.34776568 7.00807 -0.37288442 0
22.868473 12.142938 3.4761009 0
0.84948742 7.2091422 -0.35138011 0
-0.017268658 7.5519729 -0.36948633 0
0.50826693 7.683414 -0.31411156 0
22.545811 12.651 3.4607606 0
0.15587258 7.7375069 -0.38452238 0
22.234825 13.164398 3.4451277 0
-0.45400459 8.3054276 -0.40014684 0
0.11870384 8.4550629 -0.33009976 0
-0.27387512 8.533329 -0.41575399 0
21.916504 13.672923 3.4275646 0
21.603033 14.184715 3.4091482 0
-0.35975182 9.4183512 -0.36176717 0
21.277622 14.689301 3.3884048 0
20.962694 15.202749 3.3673215 0
-1.171635 10.30902 -0.39737523 0
-0.96617198 10.643975 -0.41175404 0
20.561638 15.652527 3.3372917 0
20.131472 16.075983 3.3033564 0
19.706701 16.499668 3.2686033 0
-1.6916599 11.792741 -0.41137099 0
19.285782 16.923458 3.2329068 0
18.867298 17.347185 3.1961503 0
18.449888 17.770588 3.158216 0
-2.6121998 13.260076 -0.42173085 0
18.032326 18.193365 3.1189952 0
17.639982 18.643587 3.0807555 0
17.21747 19.063911 3.0385311 0
16.732372 19.4126 2.9894567 0
16.245085 19.754669 2.9389422 0
15.769356 20.1082 2.8882 0
-2.9139333 16.230225 -0.35064682 0
15.290216 20.455833 2.8359013 0
14.812141 20.804232 2.7824309 0
14.353662 21.182467 2.7293565 0
13.874056 21.532145 2.673162 0
13.399319 21.892879 2.616051 0
12.85594 22.138899 2.5519776 0
12.319584 22.391951 2.4872904 0
11.789035 22.652506 2.4218497 0
11.255833 22.905985 2.3549652 0
10.723807 23.161079 2.2869127 0
10.190125 23.413107 2.2174523 0
9.6610813 23.678881 2.1469789 0
9.1259365 23.93429 2.0747116 0
8.5715408 24.140863 1.9999044 0
8.0318804 24.394562 1.9245472 0
7.468637 24.580261 1.8465544 0
6.9051166 24.767298 1.7672052 0
6.34091 24.957045 1.6864076 0
5.7685843 25.119761 1.6039419 0
5.2001967 25.309551 1.5199909 0
4.6295662 25.505669 1.4342577 0
4.0558734 25.709648 1.34657 0
3.469409 25.854427 1.2574182 0
2.8816595 26.01622 1.1662816 0
2.2816644 26.082121 1.0747886 0
1.6803102 26.136105 0.9821223 0
1.0787659 26.206669 0.88762558 0
8.8839254 -17.141375 -0.4664405 0
10.611123 -15.776464 -0.067663789 0
10.990068 -15.563682 0.0016918182 0
11.389194 -15.375164 0.067741632 0
11.792631 -15.185987 0.13305461 0
12.200359 -14.995162 0.19777107 0
12.576352 -14.759232 0.26564193 0
12.847864 -14.40112 0.34261787 0
13.264047 -14.204797 0.40517843 0
13.655489 -13.973843 0.4698056 0
7.0928078 -14.285364 -0.58830369 0
6.0465598 -12.009176 -0.59944242 0
5.1104069 -10.599163 -0.68315291 0
4.7530503 -10.451565 -0.6754508 0
4.7115517 -9.1018476 -0.62086082 0
4.6699505 -8.0024166 -0.57985365 0
4.6436024 -7.1108546 -0.55662876 0
4.3921084 -7.0631385 -0.54681534 0
4.3979416 -6.3419676 -0.53698343 0
4.6677237 -6.1286201 -0.47087955 0
4.1013927 -6.1997762 -0.49015003 0
4.2118011 -5.7287288 -0.53313112 0
3.9803402 -5.6701508 -0.50772214 0
4.4558082 -5.5288844 -0.47263303 0
3.6784363 -5.1777797 -0.50743604 0
3.8847017 -5.2228432 -0.53184927 0
4.1143007 -5.0494924 -0.47952807 0
0.070634902 6.1524692 -0.36500069 0
0.21219754 6.2245851 -0.36160821 0
0.64715964 6.3157239 -0.31961551 0
0.35905296 6.3654418 -0.37908155 0
-0.11724591 6.5992317 -0.34343171 0
0.49697757 6.7744961 -0.28598049 0
0.031390309 6.7561707 -0.35873342 0
0.18662572 6.8411193 -0.35459262 0
-0.34100586 7.2050338 -0.34497219 0
-0.17942238 7.3043141 -0.33867514 0
0.32816792 7.5059872 -0.29967394 0
-0.6072194 7.8982921 -0.34226105 0
-0.06938374 8.2372122 -0.31553352 0
-0.55608451 9.1458769 -0.34646735 0
-1.8989301 11.390097 -0.39889017 0
-2.8149457 12.750701 -0.40903923 0
-3.0592291 15.080785 -0.28745973 0
8.2743292 -16.891159 -0.48861611 0
6.4516258 -13.760375 -0.54823017 0
4.9502754 -11.750991 -0.64173669 0
5.4750824 -11.505066 -0.53808564 0
4.3155093 -10.078157 -0.6195389 0
4.3078823 -8.7932425 -0.563811 0
4.0187302 -8.6896582 -0.55584854 0
4.3053584 -7.7660394 -0.52717179 0
4.0450072 -7.6957893 -0.51928091 0
4.0726609 -6.8820419 -0.49846423 0
3.9029422 -6.1934628 -0.48916 0
3.6710269 -6.1200538 -0.4672389 0
3.1455696 -5.7382202 -0.53077418 0
3.5876818 -5.6211758 -0.48570845 0
3.7593431 -5.6129818 -0.48422834 0
3.3819213 -5.5642076 -0.46480501 0
2.9190927 -5.2494745 -0.52338922 0
3.0698025 -5.2445517 -0.52147162 0
3.4809451 -5.1335626 -0.48485222 0
3.1412082 -5.1003556 -0.46563092 0
3.3259053 -5.1449771 -0.48570436 0
-0.45466036 5.7516198 -0.34917086 0
-0.3269226 5.8223476 -0.34329572 0
-0.19987923 5.9479465 -0.35505965 0
-0.065612078 6.0193768 -0.35041204 0
-0.54075044 6.2863164 -0.34307042 0
-0.40173984 6.3683672 -0.33644524 0
-0.26389927 6.5157509 -0.34882945 0
-0.6441468 6.9322748 -0.33932486 0
-0.4916622 7.0290527 -0.33180869 0
-0.92381263 7.5294471 -0.32738781 0
-0.77098954 7.7286782 -0.3384937 0
-0.89175576 8.4210815 -0.27522287 0
-0.71936136 8.6605721 -0.28640008 0
-1.4985938 9.3988523 -0.31778058 0
-1.3215601 9.6999979 -0.32985717 0
-2.0314407 10.701603 -0.33529159 0
-3.2724853 14.436457 -0.27811915 0
7.5098772 -16.246397 -0.4610424 0
6.9698429 -16.021486 -0.48235512 0
5.95507 -13.483929 -0.54389513 0
4.5648851 -11.556739 -0.63589209 0
5.0802536 -11.324884 -0.53394663 0
3.9936938 -9.9376192 -0.61299211 0
3.6673357 -8.4135475 -0.50635183 0
3.7238283 -7.480607 -0.47307637 0
3.486702 -7.4139757 -0.4673177 0
3.7757177 -6.7123103 -0.45423725 0
2.8874626 -6.8204765 -0.5323571 0
3.0769572 -6.8380156 -0.52659118 0
3.5743108 -6.6988864 -0.45736384 0
3.3415861 -6.6107073 -0.4389998 0
3.2010469 -6.2494807 -0.52320403 0
3.0238118 -6.2420197 -0.52727866 0
2.6524954 -6.1583285 -0.51533866 0
2.8214841 -6.1683187 -0.51024777 0
3.2733715 -6.0480018 -0.45111871 0
3.4499102 -6.0495062 -0.44729277 0
2.9520693 -5.6781077 -0.51211756 0
2.7928371 -5.6760793 -0.51559138 0
3.1851356 -5.5092716 -0.44578588 0
2.4596684 -5.6134753 -0.50421458 0
2.6121342 -5.6181536 -0.49971342 0
2.7451496 -5.2020383 -0.50574338 0
2.4374814 -5.1578212 -0.49373069 0
2.6006374 -5.2038646 -0.50869298 0
-0.92484272 5.3817897 -0.34920278 0
-0.80811042 5.4513068 -0.34095156 0
-0.69570738 5.5630836 -0.34724873 0
-0.57379377 5.6331539 -0.34017187 0
-1.0485563 5.8576856 -0.34359214 0
-0.92234242 5.9372559 -0.33459714 0
-0.80157566 6.0672202 -0.3413578 0
-0.66935098 6.1479492 -0.33353317 0
-1.1960703 6.4274387 -0.34031713 0
-1.0587038 6.5198913 -0.33045307 0
-0.92828059 6.6734552 -0.33781064 0
-0.783831 6.7679386 -0.32910505 0
-1.3753365 7.1222363 -0.33990419 0
-1.2246598 7.2316403 -0.32900697 0
-1.0829916 7.4167013 -0.3371487 0
-1.1955999 7.8747563 -0.23565279 0
-1.0279188 8.0022068 -0.22465381 0
-1.6206849 8.8829088 -0.26179239 0
-2.2116923 10.356635 -0.3273972 0
-3.5969372 11.267391 -0.42132562 0
-3.3525934 11.408007 -0.38296962 0
-3.1208818 11.603763 -0.3539601 0
-2.9080892 11.896077 -0.33983761 0
-6.4557285 15.675426 -0.57151437 0
-6.1757278 16.0389 -0.53107858 0
-5.8472958 16.301275 -0.47715515 0
-5.5554256 16.68944 -0.43775782 0
-5.2127385 16.957672 -0.38356167 0
9.7043915 -18.946712 -0.13017195 0
6.3123727 -15.451866 -0.45814493 0
5.8295565 -15.248242 -0.47884029 0
5.3363676 -12.851527 -0.48265493 0
4.9067874 -12.612423 -0.48101583 0
4.1019135 -11.102557 -0.58015347 0
3.7605481 -10.92994 -0.5769822 0
3.6036162 -9.5760727 -0.55815554 0
3.3125064 -9.4405928 -0.55226916 0
3.4062905 -8.3180408 -0.50078732 0
3.0981219 -8.0703764 -0.4579308 0
3.2205496 -7.2611494 -0.43868393 0
3.0183511 -7.2384729 -0.44606924 0
2.4943604 -6.7112317 -0.52359354 0
2.6747017 -6.7306094 -0.51682872 0
3.1532407 -6.5995841 -0.44456261 0
2.2963905 -6.6268592 -0.51100641 0
2.1241636 -6.605938 -0.51876521 0
2.4638999 -6.0883327 -0.50116736 0
2.302304 -6.0762043 -0.50727397 0
1.9707991 -5.9961567 -0.50303602 0
2.1258161 -6.0101357 -0.49591979 0
2.1440122 -5.5511642 -0.49661583 0
2.29039 -5.5581317 -0.49108899 0
1.9848409 -5.498661 -0.48620817 0
1.8438977 -5.4896774 -0.49275339 0
2.2986121 -5.1569633 -0.49771297 0
2.0113471 -5.1094995 -0.49042797 0
2.1451204 -5.1127071 -0.48541442 0
1.7372128 -5.0619979 -0.48680088 0
1.8664277 -5.0673013 -0.4807637 0
3.7789745 4.1839533 0.37487006 0
-1.4635149 4.9793873 -0.37927857 0
-1.3552301 5.0431209 -0.36616236 0
-1.2457283 5.1070795 -0.353836 0
-1.1437082 5.2070713 -0.35493571 0
-1.0315804 5.2761927 -0.34554148 0
-1.9810503 5.2132821 -0.43289113 0
-1.8638819 5.2754326 -0.4131057 0
-1.7489179 5.3456612 -0.3970421 0
-1.6295702 5.4060664 -0.37831712 0
-1.5130568 5.4785848 -0.36452642 0
-1.3923731 5.5415726 -0.34822977 0
-1.2836421 5.6568155 -0.3496674 0
-1.1627488 5.7354493 -0.33953366 0
-2.0805454 5.7648067 -0.41736487 0
-1.9564071 5.8456321 -0.40053695 0
-1.8265965 5.9138227 -0.38037139 0
-1.7005699 5.9975753 -0.36582553 0
-1.5678825 6.064362 -0.34671742 0
-1.4498744 6.1929836 -0.34672767 0
-1.3187478 6.2837186 -0.33573651 0
-1.9273884 6.6270394 -0.37077439 0
-1.7817084 6.7039776 -0.34992662 0
-1.6509463 6.8435063 -0.34662944 0
-1.5077193 6.950036 -0.334629 0
-1.6403346 7.3583403 -0.23812997 0
-1.5024359 7.548933 -0.24186297 0
-1.3437326 7.6692615 -0.22926825 0
-1.9052594 8.2884769 -0.23013216 0
-1.7766057 8.6199417 -0.25366884 0
-3.2657728 8.9850874 -0.38721335 0
-3.0671501 9.0925379 -0.35421914 0
-2.8753185 9.2255592 -0.32699037 0
-2.6720183 9.3306017 -0.29475552 0
-2.4780653 9.4762106 -0.27076134 0
-2.3189209 9.7763796 -0.27504176 0
-4.6401291 12.290189 -0.39545205 0
-4.3760843 12.458159 -0.35157901 0
-4.1288948 12.685664 -0.316652 0
-3.8568025 12.853674 -0.27323157 0
-3.6017761 13.094302 -0.23981729 0
-3.3458357 13.360259 -0.20923141 0
-8.1326437 13.880413 -0.85368794 0
-7.8721161 14.182507 -0.80815876 0
-7.6104078 14.495173 -0.76386333 0
-7.3103952 14.746946 -0.70985568 0
-7.0422955 15.075046 -0.66699743 0
-6.7716479 15.4174 -0.62531924 0
4.3881192 -12.069338 -0.42907095 0
3.3631485 -10.532527 -0.52943987 0
3.0576279 -10.377697 -0.52852648 0
2.9747229 -9.1215858 -0.50531042 0
2.712348 -8.998745 -0.50182813 0
2.8638933 -7.9912319 -0.45680684 0
2.6216409 -7.8643007 -0.44401097 0
2.4145458 -7.8267226 -0.45410702 0
2.7906997 -7.1354356 -0.43196195 0
2.5987921 -7.1111755 -0.44020265 0
2.2048392 -6.9891667 -0.43796024 0
2.3876486 -7.0147271 -0.42885938 0
1.9390736 -6.5270457 -0.50905603 0
1.7739933 -6.5047703 -0.51779711 0
1.4480922 -6.4417577 -0.53159028 0
1.6030396 -6.4445324 -0.51515293 0
1.2899629 -6.4134426 -0.54057777 0
1.8048887 -5.9340968 -0.49444681 0
1.6556818 -5.9184623 -0.50256038 0
1.3589408 -5.863132 -0.51277673 0
1.4995376 -5.8630319 -0.49760261 0
1.0773196 -5.8401651 -0.53754413 0
1.2156765 -5.8424354 -0.52147663 0
1.6935799 -5.4401531 -0.48502058 0
1.5574466 -5.429348 -0.49257261 0
1.1539928 -5.3649535 -0.50813371 0
1.2849631 -5.3801026 -0.49973428 0
1.4147966 -5.3828149 -0.48745868 0
0.7736935 -5.3484111 -0.54970205 0
0.89911485 -5.3509569 -0.53378904 0
1.0271163 -5.3647332 -0.52314097 0
1.4746437 -5.0148067 -0.4867821 0
1.5998181 -5.0220242 -0.47973442 0
1.1020359 -4.9594574 -0.49938545 0
1.2226658 -4.9704862 -0.49128905 0
1.3437719 -4.9771056 -0.48226294 0
0.75076437 -4.9496841 -0.53878731 0
0.8667447 -4.9507089 -0.52378863 0
0.9848721 -4.9606886 -0.51346701 0
0.40440607 -4.9287872 -0.58184671 0
0.51940542 -4.9372349 -0.56719363 0
0.63449788 -4.9405899 -0.55130005 0
5.1545601 2.0212784 0.52579665 0
5.0621901 2.1122966 0.5339759 0
4.9617939 2.1971719 0.543001 0
4.899704 2.2986541 0.5434314 0
4.871057 2.417448 0.53597981 0
4.8656697 2.5508618 0.52248043 0
4.8035502 2.6538825 0.51984602 0
4.6889124 2.7242045 0.52771997 0
4.4886508 2.8751082 0.53521705 0
4.6293616 2.8272867 0.52276528 0
4.418366 2.9686427 0.53107691 0
4.3262911 3.0456333 0.53116512 0
4.2371464 3.1233892 0.52983069 0
3.8592396 3.5619321 0.49313766 0
3.8152661 3.6831493 0.4737716 0
3.8002956 3.8394046 0.44417009 0
3.7608573 3.9750674 0.41964218 0
3.8492692 4.2863488 0.50199312 0
-2.6645761 3.944706 -0.52317619 0
-2.5631886 4.000092 -0.49649322 0
-2.4665768 4.06177 -0.4741559 0
-2.3415198 4.3039765 -0.48691732 0
-2.2403767 4.363657 -0.46549845 0
-2.5636063 4.6403546 -0.48763832 0
-2.4549809 4.7056866 -0.46506119 0
-2.3444462 4.7674432 -0.44205144 0
-2.2343149 4.8300476 -0.42040151 0
-2.1236105 4.8918619 -0.39940605 0
-2.8229063 5.0339136 -0.49118394 0
-2.7056894 5.1061187 -0.46728736 0
-2.5870538 5.1758533 -0.44345284 0
-2.4688058 5.2466764 -0.42098826 0
-2.3491759 5.3153257 -0.39865845 0
-2.2304506 5.3869696 -0.37826264 0
-2.1117754 5.4604821 -0.35930634 0
-3.0028791 5.5816832 -0.47276309 0
-2.8750601 5.6616435 -0.44802511 0
-2.747586 5.7430177 -0.42466444 0
-2.6175327 5.8202057 -0.40077919 0
-2.4893632 5.902864 -0.37948459 0
-2.3611565 5.9878316 -0.35963601 0
-2.2277088 6.0625648 -0.33736753 0
-2.0980406 6.1501322 -0.31965977 0
-1.9618256 6.2232342 -0.29836684 0
-3.3612273 6.1560326 -0.48229212 0
-3.2229455 6.2494206 -0.456552 0
-3.0849261 6.3446765 -0.43219149 0
-2.9425399 6.4327841 -0.40646014 0
-2.8034983 6.5299907 -0.38415036 0
-2.6642785 6.6301117 -0.36328679 0
-2.5177627 6.7160511 -0.33911458 0
-2.3766284 6.8196654 -0.3203702 0
-2.2267771 6.9041677 -0.29713011 0
-2.0829904 7.0121436 -0.28051779 0
-1.9293652 7.0955606 -0.25821024 0
-1.7908292 7.2416863 -0.25168175 0
-3.5352178 7.1547484 -0.46253178 0
-3.3708181 7.2461805 -0.43112612 0
-3.2068787 7.3394165 -0.40110672 0
-3.043375 7.4352465 -0.37258029 0
-2.8786392 7.5305157 -0.34467602 0
-2.7240367 7.6561227 -0.32471067 0
-2.557549 7.7558923 -0.29907 0
-2.399487 7.8873668 -0.28118244 0
-2.2283275 7.9864841 -0.25639573 0
-2.0717027 8.1467915 -0.24526778 0
-3.8359208 8.6220007 -0.48152 0
-3.6491117 8.746623 -0.45024109 0
-3.4544044 8.8561935 -0.41631955 0
-3.8592465 9.7313471 -0.33033404 0
-3.6548874 9.8805914 -0.29843384 0
-3.4377885 10.00272 -0.26207095 0
-6.796155 10.583602 -0.77516466 0
-6.5657339 10.771546 -0.73083711 0
-6.3257093 10.946204 -0.68445754 0
-6.0923133 11.13504 -0.64153254 0
-5.8590388 11.328726 -0.5999698 0
-5.6109262 11.498624 -0.55450177 0
-5.3749695 11.698424 -0.51479614 0
-5.1382728 11.905254 -0.47643974 0
-4.8813124 12.073973 -0.43203938 0
7.0648127 -26.362349 -0.86534524 0
7.6523094 -26.139549 -0.75413734 0
8.2187414 -25.858198 -0.63940167 0
8.797596 -25.628599 -0.53050148 0
9.360445 -25.359953 -0.41983396 0
9.9323711 -25.122669 -0.31286496 0
10.494724 -24.864437 -0.20552737 0
11.06119 -24.618299 -0.10012877 0
11.616656 -24.348629 0.0057772398 0
12.148108 -24.031925 0.11340803 0
12.652613 -23.668991 0.22229129 0
13.158527 -23.316696 0.32908767 0
13.67745 -22.99201 0.43320066 0
14.182547 -22.64653 0.53714281 0
14.69044 -22.30761 0.63968146 0
15.198878 -21.96994 0.74117774 0
15.707459 -21.631676 0.84180146 0
16.072731 -21.102318 0.94681847 0
16.501253 -20.667431 1.0473416 0
16.949232 -20.261143 1.1458834 0
17.373463 -19.829288 1.2436645 0
17.798035 -19.400841 1.3401527 0
18.222738 -18.974361 1.4354913 0
18.647293 -18.548506 1.5298021 0
19.086216 -18.136177 1.6232698 0
19.50927 -17.707127 1.7158797 0
19.902792 -17.250711 1.8072947 0
20.25803 -16.762442 1.8970538 0
20.610222 -16.273762 1.9855907 0
20.953094 -15.779356 2.072803 0
21.301386 -15.289943 2.1591291 0
21.647631 -14.799019 2.2444587 0
21.99617 -14.308842 2.3290114 0
5.1766019 -14.505663 -0.42589369 0
4.7043028 -14.186731 -0.42704147 0
4.0116048 -11.859961 -0.42962211 0
2.7129447 -10.028057 -0.48805994 0
1.5349292 -10.166001 -0.6736089 0
1.766572 -10.119968 -0.63073516 0
1.9942739 -10.056017 -0.58514035 0
2.2236795 -10.006276 -0.54363102 0
2.4502816 -9.9458055 -0.50092924 0
2.4224668 -8.7367144 -0.46645948 0
2.1970162 -8.6819582 -0.47846904 0
1.9715942 -8.6048651 -0.48563063 0
1.7628685 -8.5868702 -0.50714785 0
2.190413 -7.7090158 -0.44414026 0
1.9935045 -7.6710324 -0.4550412 0
1.7934909 -7.6015267 -0.45820686 0
1.6099849 -7.5915728 -0.47757936 0
1.4222338 -7.5453067 -0.48791334 0
1.8332251 -6.8725305 -0.4392899 0
2.0080371 -6.8992152 -0.42933008 0
1.6533145 -6.8092775 -0.43926045 0
1.322315 -6.7711868 -0.46680278 0
1.489543 -6.8045478 -0.45688912 0
26.069117 -1.2156324 3.8002028 0
1.1617001 -6.7640123 -0.48519617 0
1.1378174 -6.4082403 -0.55787408 0
26.107561 -0.61123657 3.8429027 0
0.66216409 -6.0897655 -0.51255608 0
0.80594677 -6.1102319 -0.49876997 0
0.94932169 -6.1162968 -0.48096061 0
0.93763316 -5.8212543 -0.54851246 0
0.66415167 -5.7992377 -0.57867062 0
0.80109113 -5.8165898 -0.56546605 0
26.172382 -0.0053024292 3.8871655 0
0.3854661 -5.5652318 -0.53296959 0
0.51530886 -5.5790215 -0.51751125 0
-0.00073564053 -5.5316644 -0.58757126 0
0.12766743 -5.5435376 -0.56872171 0
0.25633883 -5.5529609 -0.54985797 0
-0.25714219 -5.507339 -0.627882 0
-0.12902629 -5.5207982 -0.60775256 0
0.52363002 -5.330864 -0.57936388 0
0.64793485 -5.3358192 -0.56256658 0
26.247461 0.60424232 3.9316492 0
0.39145815 -5.1435008 -0.52345252 0
0.034142375 -5.1187854 -0.57621664 0
0.15303183 -5.127326 -0.5578106 0
0.27208245 -5.1347766 -0.53990746 0
-0.20347571 -5.0997314 -0.61513531 0
-0.084736705 -5.1110668 -0.59594119 0
0.17524254 -4.7686634 -0.5507099 0
0.28600109 -4.7746444 -0.5336653 0
-0.15676081 -4.7473783 -0.60628504 0
-0.046144485 -4.7570982 -0.58793378 0
0.064577937 -4.7625446 -0.56867003 0
26.274107 1.2158408 3.9709165 0
-0.36400807 -4.6039228 -0.58824408 0
-0.25560665 -4.6090083 -0.56634462 0
-0.5810591 -4.5840769 -0.63078779 0
-0.47181487 -4.5905561 -0.60734332 0
26.26582 1.8277483 4.0060825 0
26.212179 2.4371583 4.0360312 0
26.16404 3.0476639 4.0656013 0
26.100765 3.6573422 4.0928001 0
26.061853 4.272439 4.1215758 0
25.989147 4.884203 4.1461296 0
25.959705 5.5075989 4.1743059 0
25.877405 6.1233144 4.1962729 0
25.736874 6.7267351 4.211307 0
5.1623979 2.2945609 0.64905518 0
5.0355139 2.369554 0.66009098 0
5.0101714 2.4946368 0.65243697 0
4.9865069 2.6225355 0.64338398 0
25.509258 7.3057861 4.2161627 0
4.9417543 2.7401373 0.63706815 0
4.9035492 2.8629446 0.62847209 0
4.8312345 2.9651737 0.62525839 0
4.6774006 3.0111737 0.63702393 0
4.5723095 3.0867121 0.63884491 0
4.4676809 3.1602898 0.63995397 0
25.228495 7.8652697 4.2142286 0
4.1147776 3.1724653 0.53599942 0
4.3519235 3.2228293 0.64277905 0
4.0227218 3.2439976 0.53412914 0
3.9505198 3.3320866 0.52637243 0
3.8900187 3.4315672 0.51447833 0
3.945554 3.6606987 0.60897887 0
24.994593 8.4360218 4.2162356 0
3.9202273 3.8063381 0.58563101 0
3.8601832 3.9201045 0.56925505 0
-3.6036613 2.3770385 -0.6543476 0
-3.540514 2.465111 -0.6348927 0
3.8462446 4.0890727 0.53919005 0
-3.4955389 2.5660071 -0.62702113 0
3.9948001 4.2757587 0.65056342 0
-3.4695358 2.682508 -0.63151723 0
-3.3769393 2.7484007 -0.59762174 0
-3.3504019 2.8677096 -0.60426283 0
-3.2420194 2.918016 -0.56242871 0
-3.2294736 3.0537667 -0.58026803 0
-3.6995502 2.979574 -0.63125443 0
-3.5649474 3.173892 -0.6000461 0
-3.2177732 3.1955569 -0.60055095 0
-3.107774 3.2429731 -0.56044263 0
-3.0106769 3.3008814 -0.52902365 0
-3.4590831 3.3982506 -0.58981842 0
-3.342536 3.4496441 -0.54922348 0
-2.9964261 3.4496212 -0.5524891 0
-2.8976173 3.5060468 -0.52202374 0
-2.8825903 3.6638777 -0.549025 0
-3.8421254 3.5558498 -0.61395538 0
-3.3383615 3.6165986 -0.57623184 0
-3.2330036 3.6792583 -0.54419637 0
-2.7821901 3.7195976 -0.51975727 0
-2.682302 3.7743015 -0.4914847 0
-3.1280129 3.7402945 -0.51300114 0
-3.1212132 3.9192746 -0.54407084 0
-3.7266936 3.8025267 -0.6030823 0
-3.6142683 3.8726559 -0.56949568 0
-3.5021236 3.9409027 -0.53669858 0
-3.0143554 3.9799495 -0.5140425 0
-2.9080307 4.0395942 -0.48501199 0
-3.5090473 4.1443834 -0.57230783 0
-2.8987768 4.2347956 -0.52130252 0
-2.790657 4.2956653 -0.49384499 0
-1.4569302 4.5871272 -0.267737 0
-3.394567 4.2123384 -0.54052329 0
-3.28058 4.2790265 -0.50969076 0
-2.6872385 4.362658 -0.4704181 0
-2.5792925 4.4218869 -0.44468921 0
-3.1671386 4.3446832 -0.47985628 0
-3.8336716 4.4770555 -0.57125598 0
-3.1694212 4.5706453 -0.52153552 0
-3.0538144 4.6382751 -0.49325243 0
-3.7113035 4.5524268 -0.53861737 0
-3.5894196 4.6265268 -0.50692612 0
-2.942656 4.711638 -0.46859685 0
-2.8271623 4.777678 -0.44204265 0
-3.4861953 4.9643817 -0.52429199 0
-3.3622255 5.0404897 -0.49511909 0
-3.2421875 5.1216154 -0.46905917 0
-3.1182251 5.1962433 -0.44160762 0
-2.9948294 5.2712736 -0.41538525 0
-3.8624587 5.4327226 -0.53012526 0
-3.7291219 5.5196877 -0.49998105 0
-3.5987899 5.6104541 -0.47228956 0
-3.4652882 5.6961389 -0.44384849 0
-3.3323178 5.7824888 -0.41663355 0
-4.3780341 6.0821328 -0.56774652 0
-4.2196226 6.1666918 -0.53020465 0
-4.0695353 6.2615566 -0.49733046 0
-3.9118943 6.34374 -0.46165702 0
-3.7553988 6.4261007 -0.42729449 0
-3.6032252 6.5147142 -0.39591327 0
-3.4524293 6.6056404 -0.36617178 0
-5.1016035 7.0001726 -0.64622653 0
-4.9240127 7.1045351 -0.6060369 0
-4.753417 7.2174649 -0.56961668 0
-4.5762911 7.3196545 -0.53129518 0
-4.4002562 7.4224062 -0.49430043 0
-4.2267094 7.5287409 -0.45931885 0
-4.0509634 7.6311688 -0.42430556 0
-3.8760641 7.7353997 -0.39067698 0
-3.6993098 7.8367119 -0.35721385 0
-5.881793 8.3805714 -0.71220779 0
-5.6845527 8.5198431 -0.67114079 0
-5.483356 8.6529455 -0.62956035 0
-5.2830739 8.7873487 -0.58931112 0
-5.0814457 8.919919 -0.54956222 0
-4.8807702 9.0550461 -0.51125771 0
-4.6806946 9.1930285 -0.47433829 0
-4.4742794 9.3208132 -0.43597573 0
-4.2730532 9.461894 -0.40104178 0
-4.0717249 9.6072645 -0.36747262 0
-7.491519 12.147215 -0.64584541 0
-9.1041307 16.205528 -0.65995371 0
-8.8272572 16.603483 -0.61034244 0
-8.4944267 16.913307 -0.54873145 0
-8.2089434 17.334518 -0.49974295 0
3.357893 25.759464 1.9225699 0
2.7714095 25.925198 1.8340659 0
2.1723762 25.989447 1.7430279 0
1.5720882 26.042572 1.6508906 0
0.97149897 26.111517 1.5577128 0
0.36881542 26.189777 1.4632332 0
-0.23653412 26.229687 1.3675137 0
-12.052872 23.648315 -0.6888724 0
-0.84582233 26.316793 1.2700636 0
-11.528271 23.976093 -0.58882773 0
-10.974905 24.247746 -0.48456126 0
-2.0579805 26.229868 1.0741844 0
-1.4566193 26.347265 1.171603 0
-10.410875 24.496054 -0.3793506 0
-2.6647024 26.191599 0.97469288 0
-9.8445797 24.738905 -0.27470547 0
-3.276041 26.17955 0.87340856 0
-9.2761002 24.977268 -0.17064005 0
-3.8849299 26.131575 0.77167308 0
-4.5040255 26.129175 0.66714841 0
-8.7111664 25.228485 -0.068176746 0
-5.1169524 26.071568 0.56283176 0
-8.1369686 25.458256 0.034971833 0
-5.7476139 26.078918 0.45438695 0
-7.5706043 25.720406 0.13574752 0
-6.3664904 26.011347 0.34712884 0
-6.9891462 25.942661 0.23823957 0
6.1210608 -25.10408 -0.83854079 0
6.113523 -17.442495 -0.34600884 0
5.5818071 -17.164406 -0.37287816 0
4.1457648 -13.505456 -0.37539849 0
3.7367153 -13.231735 -0.37858999 0
24.742792 -8.3082256 3.1474295 0
-0.9527235 -13.561787 -1.1417013 0
24.896488 -7.7261662 3.2102523 0
25.049402 -7.1447811 3.2720146 0
25.202814 -6.5637741 3.3328621 0
3.5714207 -11.389779 -0.38550574 0
3.2374933 -11.2044 -0.38788101 0
25.358042 -5.9827485 3.3929493 0
25.516462 -5.4012079 3.452441 0
1.3458834 -8.5039778 -0.54065907 0
1.5487933 -8.521534 -0.51788175 0
1.1433241 -8.4730053 -0.56078929 0
0.74673629 -8.4367228 -0.60943031 0
0.94520366 -8.4646721 -0.58721614 0
0.55075753 -8.4251347 -0.63654339 0
0.35519528 -8.3996725 -0.66083646 0
1.242808 -7.5329108 -0.50797713 0
0.88526392 -7.4753423 -0.54120207 0
1.0612756 -7.4902282 -0.5204398 0
26.010693 -1.8178883 3.7548923 0
0.70870256 -7.4358606 -0.55577862 0
0.36277807 -7.3815637 -0.59388369 0
0.53549993 -7.4183497 -0.57723343 0
0.19179142 -7.3475752 -0.6120066 0
0.021959066 -7.3265195 -0.63466871 0
0.99936825 -6.7333364 -0.49725828 0
0.68288004 -6.6953888 -0.53060937 0
0.84136158 -6.7236805 -0.5164181 0
0.52698076 -6.683135 -0.55052328 0
0.21708167 -6.6327295 -0.58453602 0
0.37139618 -6.6568122 -0.56679964 0
-0.089152336 -6.5938988 -0.62543869 0
0.063617706 -6.6169176 -0.60573995 0
-0.24143398 -6.5724421 -0.64649355 0
0.37885225 -6.0621567 -0.54703593 0
0.52040207 -6.0811682 -0.53116292 0
0.098270297 -6.0328712 -0.58430731 0
0.23824823 -6.0449748 -0.56435406 0
-0.18055046 -6.0011129 -0.62421978 0
-0.041272402 -6.0163689 -0.60359102 0
-0.43549991 -5.7488613 -0.5858984 0
-0.30143929 -5.7621279 -0.56370342 0
-0.70363259 -5.7163701 -0.63097548 0
-0.56988323 -5.7361026 -0.60925961 0
-0.83864963 -5.7022986 -0.65586674 0
-0.36689281 -5.3119702 -0.57607436 0
-1.3333175 -5.4519253 -0.68701553 0
-0.74050713 -5.2749143 -0.64412105 0
-0.61525404 -5.2855992 -0.61970425 0
-0.49139452 -5.302649 -0.59895122 0
-0.83371747 -5.0992045 -0.59991509 0
-1.0804428 -5.0783377 -0.65274233 0
-0.95663881 -5.0891132 -0.62588346 0
-0.42347932 -4.9292583 -0.59214377 0
-0.30755579 -4.9361157 -0.5697552 0
-1.2051836 -5.0666618 -0.6804378 0
-0.65551615 -4.906034 -0.63596451 0
-0.53877687 -4.9142756 -0.61203063 0
-1.5335865 -4.8779349 -0.70029891 0
-1.4094268 -4.8924513 -0.67100388 0
-0.9764545 -4.7403083 -0.64919275 0
-0.86063385 -4.7490788 -0.6228168 0
-0.74568462 -4.7571588 -0.59733534 0
-1.7369268 -4.7264676 -0.70449352 0
-1.2886662 -4.5812001 -0.67142415 0
-1.1730974 -4.5924034 -0.64323676 0
-1.0585033 -4.6023507 -0.61576509 0
-0.66811991 -4.4568057 -0.59692907 0
-0.88471127 -4.442863 -0.64780605 0
-0.77599168 -4.4501786 -0.62191951 0
-1.4846079 -4.4532037 -0.67885733 0
-1.364038 -4.4508519 -0.6419968 0
-0.96482229 -4.3237934 -0.61860186 0
-1.0726448 -4.3151374 -0.64560115 0
-1.6708596 -4.3132215 -0.68246895 0
-1.5565401 -4.3292451 -0.65277994 0
-1.369477 -4.1946545 -0.68429029 0
-1.2557473 -4.1916709 -0.64769167 0
-1.1486197 -4.2023664 -0.6198476 0
-1.8694005 -4.2083797 -0.70720541 0
-1.4407837 -4.0857615 -0.66162539 0
-1.6241817 -3.9813232 -0.67946541 0
-1.5103579 -3.9815571 -0.64130425 0
-2.1467066 -4.0151114 -0.73095679 0
-1.6990113 -3.8956432 -0.6704123 0
-1.8793333 -3.7919619 -0.69321293 0
-1.80598 -3.8761024 -0.70026326 0
-1.9617195 -3.7266791 -0.6978761 0
-2.0521493 -3.6754899 -0.71200407 0
5.2773247 2.3511982 0.77807868 0
5.2239494 2.4671526 0.77596229 0
5.1717257 2.5839553 0.7727766 0
5.1287842 2.7064419 0.76727021 0
5.0769811 2.8248563 0.76213908 0
5.0444932 2.9561563 0.75302005 0
4.9761238 3.0661874 0.74851751 0
5.252171 3.0913534 0.87698454 0
4.8214121 3.1169646 0.75718588 0
4.7067542 3.191175 0.75888413 0
4.5916123 3.2622185 0.76011086 0
-3.7397571 1.4945763 -0.63885826 0
4.1971517 3.2500525 0.65348125 0
4.4743872 3.3287942 0.76117402 0
-3.7719545 1.620769 -0.66425526 0
4.1012111 3.3221908 0.65125585 0
-3.7102344 1.7074579 -0.63860607 0
4.0122356 3.3991091 0.64680946 0
-4.0310192 1.7154164 -0.65923548 0
3.9501612 3.5006418 0.63536149 0
-3.7232893 1.8890499 -0.6610707 0
4.1221018 3.6763539 0.73783451 0
-3.9916701 1.9429485 -0.65540761 0
4.0425444 3.7706296 0.72828352 0
-3.9555483 2.0504148 -0.64641547 0
-3.7298913 2.0741634 -0.68246979 0
-3.6672387 2.1623716 -0.66033894 0
-3.5812428 2.235311 -0.62573212 0
4.0210667 3.9259899 0.70556301 0
-3.983007 2.1936512 -0.67200446 0
-3.9136722 2.285449 -0.6475783 0
3.9418788 4.0249872 0.69354159 0
-4.3518052 2.2348647 -0.69397509 0
-4.2625804 2.3256073 -0.66029149 0
-3.9150088 2.4197378 -0.66177452 0
-3.8415961 2.5093548 -0.63710713 0
-4.3083835 2.4921689 -0.69416332 0
-4.1905007 2.5655489 -0.64809662 0
-3.8645005 2.6638517 -0.66549939 0
-3.722796 2.7058916 -0.60561788 0
-4.7191505 2.5511503 -0.71372211 0
-4.2199306 2.729918 -0.67636633 0
-3.702183 2.8338647 -0.61272633 0
-4.1312699 2.820559 -0.64666766 0
-4.6394787 2.8139334 -0.69858295 0
-4.081851 2.9376118 -0.63767433 0
-3.5835366 3.0358894 -0.58775681 0
-4.0725288 3.086132 -0.65030122 0
-3.9665718 3.163192 -0.61452174 0
-3.4632757 3.240252 -0.56626445 0
-4.5626349 3.0854123 -0.68897361 0
-3.957859 3.318228 -0.63007766 0
-4.5102983 3.2146654 -0.67930943 0
-4.3790722 3.2868779 -0.63336736 0
-3.8337104 3.3785694 -0.58651102 0
-2.2193024 3.8723979 -0.33551881 0
-4.4025593 3.4759269 -0.66181552 0
-4.2694979 3.5445836 -0.61664873 0
-3.7314742 3.6273754 -0.57934248 0
-4.2772427 3.7304211 -0.64041907 0
-4.7661591 3.7275553 -0.64825732 0
-4.159586 3.8108778 -0.60446054 0
-4.0418506 3.8887863 -0.5691089 0
-4.0509467 4.0901146 -0.59807521 0
-4.6500902 4.0162663 -0.63194251 0
-4.5247493 4.1045465 -0.59521747 0
-3.931082 4.1670837 -0.56369174 0
-3.8114748 4.2420983 -0.53008914 0
-4.5702047 4.3505673 -0.63690209 0
-4.4271784 4.4241915 -0.5941745 0
-4.2991333 4.5095468 -0.55894065 0
-4.1713009 4.5928879 -0.52447397 0
-3.4680772 4.6996164 -0.47622848 0
-4.2142363 4.867547 -0.5722115 0
-5.0826726 4.7900615 -0.6599896 0
-4.083128 4.9521928 -0.538652 0
-3.9524736 5.0355945 -0.50603044 0
-4.9103432 4.8571858 -0.60865581 0
-3.8223362 5.1180439 -0.47439414 0
-4.8806815 5.3124208 -0.64207608 0
-4.7247987 5.397522 -0.60060483 0
-4.5698051 5.4804277 -0.56012994 0
-4.4158006 5.5614529 -0.52069736 0
-5.9372997 5.2785106 -0.75861084 0
-4.2628617 5.6409183 -0.48234937 0
-5.7691665 5.3830986 -0.71273482 0
-5.6007185 6.0313005 -0.70871294 0
-5.4276204 6.1327038 -0.66477633 0
-5.2553563 6.2318344 -0.62183785 0
-5.0840368 6.3290491 -0.57994449 0
-4.9137521 6.4247184 -0.53914076 0
22.103106 13.105989 4.0992298 0
-6.5455399 6.9751377 -0.79860288 0
-6.3518419 7.1000514 -0.75170124 0
-6.1588345 7.2227144 -0.70578873 0
-5.9666443 7.343545 -0.66091287 0
21.786369 13.614605 4.0816884 0
-5.7753778 7.462985 -0.6171217 0
-5.5851116 7.5814958 -0.57445765 0
21.474409 14.126536 4.0637994 0
-7.3465109 8.1285114 -0.78910708 0
21.149916 14.630924 4.0435128 0
-7.252471 8.4151297 -0.77723718 0
-7.1584134 8.7125626 -0.76676214 0
20.83638 15.144604 4.0236616 0
-6.9704332 8.9037724 -0.72821867 0
-6.7544961 9.060132 -0.68181956 0
-6.5393724 9.2167778 -0.63656437 0
-6.3251991 9.3745193 -0.59252727 0
20.438349 15.595819 3.9926395 0
20.010149 16.02 3.9569292 0
19.587233 16.444447 3.920862 0
19.168072 16.869051 3.8842795 0
-8.1659489 10.83036 -0.75538224 0
18.751215 17.293613 3.8470275 0
-8.0967731 11.276671 -0.75329697 0
-7.9305487 11.608345 -0.7260561 0
18.335327 17.717886 3.808959 0
-7.741251 11.91952 -0.6937868 0
17.919163 18.14155 3.7699349 0
17.522232 18.586472 3.7324572 0
17.101192 19.007765 3.69102 0
16.616749 19.356327 3.640512 0
16.131765 19.700344 3.5889692 0
-9.8378334 14.234326 -0.78431714 0
15.657516 20.055077 3.5378733 0
-9.6852798 14.734728 -0.7584306 0
15.180243 20.404606 3.485455 0
-9.5325251 15.263112 -0.73378623 0
14.703356 20.754204 3.4321685 0
-9.2771111 15.652612 -0.6865719 0
14.226928 21.105158 3.3780344 0
13.749992 21.457321 3.322933 0
13.274481 21.815243 3.2671289 0
12.739119 22.073036 3.2024195 0
12.202175 22.323359 3.1365569 0
11.671461 22.581875 3.0705996 0
11.13769 22.8323 3.0033069 0
10.605549 23.085121 2.935317 0
10.07178 23.334782 2.8661923 0
9.5421648 23.596922 2.7967234 0
9.0069599 23.849646 2.7255814 0
8.4556923 24.06208 2.6513305 0
7.9168777 24.316162 2.5778644 0
7.3539052 24.499704 2.5001733 0
6.7906761 24.68453 2.421524 0
6.2267799 24.871975 2.3418546 0
5.655129 25.033405 2.2601988 0
5.0871077 25.220833 2.1780908 0
4.5168562 25.414524 2.0947187 0
3.9435501 25.616022 2.0099492 0
-12.109668 22.465176 -0.70514816 0
4.9656863 -16.528194 -0.35716665 0
4.4585757 -16.160576 -0.36889592 0
2.1055813 -12.950149 -0.54902971 0
2.3964484 -12.865689 -0.49253088 0
2.6894331 -12.80085 -0.44015458 0
2.9785898 -12.721183 -0.38646522 0
3.2693894 -12.651849 -0.33527079 0
1.3503058 -11.060747 -0.61127174 0
2.8595343 -10.794505 -0.3504689 0
0.8398807 -11.114293 -0.69899756 0
1.0946895 -11.079961 -0.65315974 0
1.5989259 -10.987262 -0.55990654 0
1.8490655 -10.937182 -0.51411432 0
2.0949361 -10.86743 -0.46569014 0
2.342598 -10.813404 -0.42118144 0
2.5871816 -10.747518 -0.375496 0
0.58289933 -11.120821 -0.74020994 0
0.32475471 -11.055588 -0.76738155 0
0.069535732 -10.995175 -0.79599071 0
-0.18399501 -10.959126 -0.83034492 0
-0.43531489 -10.902012 -0.86077654 0
-0.68515062 -10.848405 -0.89257562 0
-0.93485212 -10.806426 -0.92767757 0
-1.1827509 -10.754119 -0.96117043 0
1.1943779 -9.2535782 -0.50596929 0
0.97793293 -9.2406502 -0.53457046 0
0.76111853 -9.2026768 -0.55816031 0
0.33434212 -9.1515074 -0.61281294 0
0.5474304 -9.186389 -0.58730865 0
0.12282681 -9.1199312 -0.63972574 0
-0.08778429 -9.0990438 -0.66990781 0
-0.50667644 -9.0417452 -0.72879213 0
-0.29747105 -9.0692358 -0.6986804 0
-0.71565318 -9.0151253 -0.75994086 0
-1.1337168 -8.9618225 -0.82485807 0
-0.92451143 -8.9878559 -0.79178464 0
-1.3420846 -8.9281273 -0.85683525 0
-0.019269228 -7.7810516 -0.55846304 0
0.16086948 -7.793581 -0.53145933 0
-0.19911969 -7.7659717 -0.58560276 0
-0.55865598 -7.7347107 -0.6421538 0
-0.37900114 -7.7525702 -0.61405784 0
-0.92003179 -7.7081695 -0.70376515 0
-0.7389915 -7.721045 -0.67235386 0
-1.2823609 -7.6693063 -0.76579404 0
-1.1000118 -7.6838379 -0.73281705 0
-0.2923305 -6.9270277 -0.57321876 0
-0.13215327 -6.95261 -0.5517723 0
-0.45228553 -6.9043722 -0.59636462 0
-0.77124715 -6.854527 -0.64379144 0
-0.61175942 -6.8789687 -0.61949503 0
-1.0898716 -6.8010006 -0.69360942 0
-0.93026328 -6.8265009 -0.66782993 0
-1.3443621 -6.4694982 -0.65273559 0
-0.51593423 -6.2634573 -0.60001415 0
-0.37024105 -6.2817388 -0.57734436 0
-1.6554973 -6.4232621 -0.71001655 0
-1.4995122 -6.4468088 -0.68097585 0
-0.80714226 -6.2226062 -0.64665258 0
-0.66183138 -6.2458749 -0.62385201 0
-1.8123704 -6.3985701 -0.73979801 0
-0.95347571 -6.2038012 -0.67200172 0
-1.1943115 -5.9342499 -0.6402455 0
-1.0519524 -5.9509811 -0.61332488 0
-1.4816133 -5.898634 -0.69665271 0
-1.3375106 -5.9168901 -0.66804123 0
-1.5629703 -5.6730223 -0.64612406 0
-1.8465195 -5.6338463 -0.70576859 0
-1.7042388 -5.6542478 -0.6756357 0
-1.0666804 -5.4799099 -0.63152158 0
-0.93470335 -5.4927812 -0.60507238 0
-1.9965987 -5.6290193 -0.74358094 0
-1.1995324 -5.4663706 -0.65885448 0
-2.0652313 -5.4223924 -0.69914961 0
-1.415004 -5.2622275 -0.64322346 0
-2.2068229 -5.3981895 -0.73054284 0
-1.6793345 -5.2297416 -0.70202976 0
-1.546659 -5.246768 -0.67230713 0
-1.89046 -5.0517259 -0.70127773 0
-1.758899 -5.0705719 -0.67067659 0
-1.2862768 -4.9054656 -0.64236259 0
-2.023001 -5.0306826 -0.73232412 0
-2.0978346 -4.8828712 -0.70606291 0
-2.2387664 -4.8774624 -0.74644864 0
-1.6134608 -4.7430072 -0.67428118 0
-2.301796 -4.7192326 -0.71507257 0
-2.4428778 -4.709969 -0.75604534 0
-1.9372344 -4.581089 -0.71366608 0
-1.8067698 -4.5832338 -0.67439228 0
-2.5431845 -4.626153 -0.76161247 0
-2.0125742 -4.4618559 -0.6955598 0
-2.1347368 -4.4385247 -0.72663087 0
-2.5867839 -4.4538484 -0.72234321 0
-2.2080543 -4.3239121 -0.71129841 0
-1.7469233 -4.2105818 -0.66775817 0
-2.6941772 -4.3880525 -0.73754126 0
-2.3008885 -4.2480574 -0.71655333 0
-2.4073949 -4.1953802 -0.73514479 0
-1.935284 -4.0922685 -0.68591523 0
-2.4390402 -4.0279846 -0.69063479 0
-2.0090928 -3.9973364 -0.67613184 0
-2.5548248 -3.9916475 -0.7196545 0
-2.1919034 -3.8759813 -0.69678092 0
-2.2775166 -3.8065808 -0.70324647 0
-2.6930094 -3.7882276 -0.70453578 0
-2.4076676 -3.6131787 -0.68434364 0
-2.3251908 -3.6830337 -0.67738676 0
-2.0834918 -3.5330226 -0.66928256 0
-2.1773634 -3.490087 -0.68978786 0
-2.4493556 -3.4905875 -0.65835154 0
-2.2530239 -3.4202654 -0.69388533 0
-2.5294664 -3.4209809 -0.66627228 0
-2.2936244 -3.3052707 -0.66798788 0
-2.6659846 -3.2552695 -0.6664902 0
-2.3666925 -3.2357359 -0.67298907 0
-2.4022012 -3.1222117 -0.64735568 0
-2.7978735 -3.0887551 -0.66809279 0
-2.4933136 -3.0758035 -0.67006087 0
-2.5242329 -2.962934 -0.64451039 0
-2.5529349 -2.8520052 -0.61955154 0
-2.6418638 -2.8033159 -0.64321905 0
5.4354539 2.5765848 0.89924735 0
-3.7088604 0.55055183 -0.59877062 0
-3.6563692 0.63957185 -0.56895828 0
5.3214235 2.6671257 0.90319043 0
-3.6685219 0.74069363 -0.57535797 0
5.2560091 2.782063 0.90061486 0
-3.7073209 0.84982908 -0.59721011 0
5.2133865 2.9105031 0.89439774 0
-3.9637282 0.89909869 -0.59812301 0
-3.7462339 0.96208125 -0.62005776 0
-4.0072727 1.0185983 -0.62141401 0
-3.6910779 1.0497751 -0.59237373 0
-3.9422715 1.1099246 -0.58990663 0
-3.7278833 1.1655262 -0.61598277 0
5.0565147 3.1251752 0.88826621 0
-3.9835465 1.2331008 -0.61387175 0
-3.7642529 1.2846205 -0.64039987 0
4.9779558 3.2317858 0.88401777 0
5.3475881 3.3229907 1.0118177 0
-4.3502979 1.2140634 -0.64958882 0
-3.7065527 1.3718483 -0.61408716 0
4.8739347 3.3197334 0.88238758 0
5.2781782 3.4463375 1.0057294 0
-4.0244322 1.3599416 -0.63863784 0
4.2994328 3.3444943 0.77214527 0
4.762939 3.4005244 0.88107479 0
-4.3167 1.4447477 -0.6384567 0
-4.0647249 1.4905562 -0.66415137 0
4.1960154 3.4149094 0.76999557 0
4.6239481 3.456768 0.88315356 0
-4.3622475 1.584486 -0.66430765 0
-3.9945538 1.5809629 -0.63360828 0
5.0648823 3.6387672 0.99881542 0
-4.2799191 1.6779103 -0.62941033 0
4.1583095 3.5431108 0.75473863 0
-4.6995568 1.6911807 -0.66629285 0
-3.9597142 1.8047624 -0.62991124 0
5.1501484 3.8854818 0.97344565 0
-4.3213048 1.8216683 -0.65524817 0
4.2462335 3.8075004 0.85976422 0
-4.3614516 1.9696863 -0.68162084 0
4.1712627 3.9128697 0.84886205 0
-4.649313 1.9419323 -0.65243393 0
-4.2748194 2.0612836 -0.64733785 0
-4.6951818 2.100976 -0.67896962 0
4.1691647 4.0957351 0.82436502 0
-4.5937376 2.1947708 -0.63981843 0
-4.6802545 2.38153 -0.68695587 0
-5.1271448 2.428077 -0.70471734 0
-5.0538564 2.5485637 -0.68051112 0
-4.6354418 2.6566963 -0.68549675 0
-5.0989509 2.7317114 -0.70719117 0
-5.007298 2.8439603 -0.67704368 0
-4.5324488 2.90488 -0.66138923 0
-1.7508124 3.6615243 -0.11386311 0
-1.6497049 3.6760378 -0.08281979 0
-1.5634181 3.7194703 -0.065230034 0
-5.0126295 3.0127597 -0.68903697 0
-1.5162864 3.8550465 -0.085925967 0
-1.4471645 3.9482744 -0.088987216 0
-5.05092 3.2073169 -0.7163437 0
-4.9197459 3.2964935 -0.67204833 0
-1.3722939 4.0336905 -0.088986479 0
-5.639102 3.174439 -0.74873197 0
-1.6294862 4.0650358 -0.045163728 0
-4.8652554 3.4357123 -0.66161817 0
-4.7264109 3.5145481 -0.6154241 0
-5.4940176 3.4575624 -0.70939714 0
-5.2707505 3.6884208 -0.64257306 0
-4.625154 3.8031707 -0.60278064 0
-5.5645804 3.694365 -0.74767208 0
-5.3434033 3.9358215 -0.68397349 0
-5.2009692 4.0299306 -0.64050108 0
-5.2860022 4.3038282 -0.68980169 0
-5.114809 4.3753366 -0.63649619 0
-6.0579476 4.2004356 -0.73738223 0
-4.9683809 4.4631987 -0.59383076 0
-5.9601412 4.3501859 -0.71236122 0
-6.0780287 4.6645103 -0.76717812 0
-4.7599783 4.9413056 -0.56703675 0
-5.9449964 4.7949991 -0.73139751 0
-5.7581463 4.8786345 -0.67646158 0
-5.5802388 5.4638052 -0.65962499 0
-5.4142113 5.5620751 -0.61576629 0
-6.640892 5.8491106 -0.76576936 0
-6.5388484 6.0427761 -0.74536109 0
-6.4406805 6.2434263 -0.72731638 0
-6.256094 6.3613806 -0.68078256 0
-7.4404116 7.8513632 -0.80224687 0
-8.4596252 9.2686691 -0.78304243 0
-8.3841209 9.6309471 -0.77359015 0
-8.3098469 10.010364 -0.76571703 0
-8.2370453 10.409274 -0.75958765 0
-10.368141 12.960538 -0.88542151 0
-10.220846 13.406278 -0.85741609 0
-10.073763 13.872485 -0.83052361 0
-11.667643 20.506731 -0.63129073 0
2.1163836 -15.952621 -0.66849411 0
2.4791543 -15.877121 -0.60332954 0
2.8353376 -15.770487 -0.53509182 0
3.1941431 -15.689528 -0.47127956 0
3.5479281 -15.589008 -0.40595648 0
3.9038603 -15.502673 -0.34333456 0
1.7155112 -12.273197 -0.481754 0
-1.1074297 -12.028664 -0.88768548 0
-1.3811533 -11.955705 -0.92235172 0
-1.6538477 -11.885647 -0.95816278 0
-1.9267735 -11.822716 -0.99611032 0
-1.292048 -9.7824926 -0.7777403 0
-1.5186694 -9.7419081 -0.81148094 0
-1.9742589 -9.6673279 -0.88319159 0
-1.7461123 -9.7044382 -0.84682918 0
-2.2032919 -9.6300974 -0.92050904 0
-2.4253106 -9.5628071 -0.95104027 0
-2.6148894 -9.3870525 -0.95354629 0
-2.8010521 -9.2174196 -0.95740557 0
-1.4283345 -8.2648354 -0.71763337 0
-1.8230973 -8.2240925 -0.78776211 0
-1.6251011 -8.2446775 -0.75221527 0
-2.2232108 -8.1800747 -0.86151201 0
-2.022438 -8.2026863 -0.8242147 0
-2.425473 -8.1558762 -0.89959013 0
-2.8493266 -7.5915966 -0.86583614 0
-1.365369 -7.1874709 -0.65675724 0
-3.0110726 -7.4801741 -0.87822294 0
-1.7151917 -7.164506 -0.72548366 0
-1.539548 -7.1764307 -0.69066405 0
-2.0711422 -7.1366878 -0.79763186 0
-1.8923737 -7.1513681 -0.7611596 0
-2.1164937 -6.7267704 -0.70323074 0
-2.4734936 -6.7189107 -0.78568834 0
-2.2891827 -6.7114558 -0.73979521 0
-1.1899744 -6.4916239 -0.62535566 0
-2.6504011 -6.6992579 -0.82379591 0
-3.0478768 -6.3439584 -0.83627832 0
-2.8598647 -6.3424349 -0.78769726 0
-2.040529 -6.1033568 -0.71189672 0
-1.8873272 -6.1283331 -0.68137455 0
-2.2015777 -6.0939255 -0.74955666 0
-2.266269 -5.8491917 -0.69826734 0
-2.5800657 -5.8093681 -0.76985538 0
-2.4180346 -5.8208284 -0.72998273 0
-2.7974405 -5.5691338 -0.76450741 0
-2.6463366 -5.6031227 -0.73202294 0
-3.0771542 -5.4507604 -0.81228328 0
-2.8611388 -5.3777876 -0.7316041 0
-2.2793732 -5.2243104 -0.69878787 0
-2.4292755 -5.2165294 -0.73912811 0
-3.1163015 -5.2303662 -0.76640111 0
-2.6391265 -5.0232182 -0.74409169 0
-2.4894285 -5.0347376 -0.70320827 0
-2.7453427 -4.9328876 -0.75007105 0
-3.3151519 -5.0000381 -0.7665844 0
-2.8751161 -4.8814602 -0.77517825 0
-2.9069109 -4.6808524 -0.72869492 0
-2.9606593 -4.5237308 -0.70208848 0
-3.0783191 -4.4605327 -0.72260964 0
-3.1246529 -4.3040876 -0.69544524 0
-2.7459736 -4.2421756 -0.7107994 0
-3.2417586 -4.2410345 -0.71745718 0
-2.8510733 -4.1757193 -0.72675723 0
-2.8959265 -4.0306525 -0.69960904 0
-2.9119678 -3.8567979 -0.6548503 0
-2.5787549 -3.826771 -0.67501748 0
-3.0383234 -3.8207364 -0.68963522 0
-3.0737967 -3.6796112 -0.66282088 0
-2.7100801 -3.6266904 -0.66020244 0
-2.8234854 -3.5864837 -0.69062042 0
-3.2319441 -3.5012455 -0.67241049 0
-2.8581929 -3.4551942 -0.6640259 0
-2.8901873 -3.3262095 -0.63793212 0
-2.5657673 -3.2998891 -0.64045006 0
-3.0020597 -3.2827213 -0.6693325 0
-3.0294409 -3.1546416 -0.64337587 0
-2.6974277 -3.1347919 -0.64065897 0
-3.1664801 -2.982995 -0.65126294 0
-3.0546813 -3.0290909 -0.61811781 0
-2.824971 -2.969233 -0.64249879 0
-2.8500512 -2.8520031 -0.61761576 0
-3.188133 -2.8587744 -0.62656516 0
-2.8733201 -2.7370791 -0.59349924 0
-2.66677 -2.6935041 -0.61871296 0
-2.971421 -2.6878464 -0.62240422 0
-2.6899595 -2.5857873 -0.59498084 0
-2.9916725 -2.5743625 -0.59907615 0
-2.7779903 -2.5353816 -0.62033427 0
-3.0106959 -2.4632509 -0.57670879 0
-2.7983088 -2.4290857 -0.59745824 0
-3.0477781 -2.3680182 -0.56774896 0
-2.8174496 -2.3249443 -0.57554191 0
-3.1462383 -2.3155057 -0.59927118 0
-2.8530629 -2.2353487 -0.56670445 0
-3.1617482 -2.2069695 -0.578493 0
-2.9407487 -2.1821854 -0.59454376 0
-3.1943264 -2.1113 -0.5698185 0
-2.9565234 -2.0804775 -0.57427669 0
-2.9878249 -1.9905167 -0.56578118 0
-3.0017526 -1.8917493 -0.54708809 0
-3.1190553 -1.745331 -0.57066774 0
-3.0154569 -1.7949238 -0.52962315 0
-3.1315181 -1.6486566 -0.55429012 0
-3.1564701 -1.5591552 -0.54690754 0
-3.1682088 -1.4649196 -0.53239524 0
-3.1907656 -1.3761896 -0.52560174 0
-3.3873186 -0.66702759 -0.51072532 0
-3.4137883 -0.57935369 -0.51388782 0
-3.4520476 -0.49233359 -0.52446187 0
-3.4770494 -0.40281355 -0.52826357 0
-3.7604635 -0.33464271 -0.54681176 0
-3.5163743 -0.31337601 -0.54083729 0
-3.7861707 -0.23747927 -0.55135351 0
-3.5398314 -0.22176027 -0.54525948 0
-3.830651 -0.13954198 -0.56643403 0
-3.580128 -0.12940353 -0.55979866 0
-3.6019161 -0.035443902 -0.56480956 0
-3.8246405 0.0090733767 -0.55268991 0
-3.643013 0.060330689 -0.58125901 0
-3.8157659 0.1578396 -0.53911066 0
-3.5710838 0.15094882 -0.53627062 0
-3.8599527 0.26098508 -0.55703336 0
-3.610965 0.24816304 -0.55369282 0
-4.1406794 0.27559495 -0.56295586 0
-3.6517594 0.34778714 -0.57238054 0
-4.1911311 0.38835037 -0.58272105 0
-3.9052145 0.36677307 -0.57623696 0
-3.668093 0.44646424 -0.57847375 0
-3.9235725 0.47157425 -0.58236527 0
-4.2118468 0.50007433 -0.58887678 0
-3.9689612 0.58226407 -0.60318404 0
-4.2626076 0.61823863 -0.61026013 0
-3.9064393 0.6756531 -0.56945872 0
-4.5971847 0.65940332 -0.62046528 0
-4.1877289 0.7164132 -0.57205474 0
-3.9203911 0.78301632 -0.57582879 0
-4.2037735 0.8308149 -0.57837486 0
-4.2523594 0.95474523 -0.60113263 0
-4.5801654 1.0181351 -0.60658789 0
-4.3012676 1.0824403 -0.62488878 0
-4.635354 1.1551826 -0.63083643 0
-4.6907825 1.2965825 -0.65602511 0
-4.2706003 1.309166 -0.61334139 0
5.132906 3.5153856 1.0065717 0
-4.5956812 1.3955061 -0.61463469 0
4.4245615 3.45839 0.8937245 0
4.3268676 3.5394876 0.88920426 0
-4.9673638 1.4944274 -0.61805141 0
-4.6478682 1.5410438 -0.64010382 0
4.6180782 3.6299219 1.0155497 0
4.2727728 3.6590843 0.87725574 0
4.5068655 3.7076652 1.0112201 0
-5.0267444 1.6514177 -0.64388108 0
-4.6021943 1.7876009 -0.62640715 0
4.4042592 3.7912583 1.0053068 0
-5.0857024 1.8135313 -0.67041248 0
4.3693027 3.9383883 0.99030256 0
4.2933998 4.0493908 0.97933638 0
-5.1439729 1.9809176 -0.69758439 0
-5.53262 1.9553496 -0.67705393 0
-5.0234137 2.0793066 -0.6509583 0
-5.5997043 2.1373429 -0.70455182 0
-5.4545746 2.2378469 -0.651021 0
-5.0760431 2.2510185 -0.67762882 0
-5.5153074 2.4242835 -0.67779529 0
-5.5745034 2.6167216 -0.70494783 0
-5.4831581 2.7407112 -0.67467695 0
-5.5356817 2.9395483 -0.70119977 0
-6.1802788 3.0627484 -0.7399891 0
-5.4411268 3.2412791 -0.67944407 0
-6.0041952 3.1606941 -0.68165433 0
-6.0911884 3.3991804 -0.71800202 0
-6.1216106 3.6146705 -0.73519742 0
-5.9951715 3.739913 -0.69705987 0
-6.0708489 3.995018 -0.73261136 0
-6.7407341 4.1685319 -0.73487544 0
-6.5730667 4.5181284 -0.69267672 0
-6.7355089 4.8721151 -0.75393063 0
-6.6361141 5.0479198 -0.73012924 0
-6.5437713 5.2306194 -0.70954937 0
-6.4530425 5.4168768 -0.69043297 0
-7.4812894 6.2219257 -0.75770807 0
-7.3844423 6.4453001 -0.73759276 0
-7.2864099 6.6718812 -0.71806568 0
-7.2171555 6.9306498 -0.70819557 0
-7.1195493 7.1692648 -0.69084322 0
-8.5361156 8.9214582 -0.79392314 0
-10.274318 11.145528 -0.85357535 0
-10.298986 11.710155 -0.86167687 0
-10.333229 12.31722 -0.8729353 0
-12.611834 17.181307 -0.84139043 0
-12.31531 17.622633 -0.77851003 0
-12.117996 18.227217 -0.73447227 0
-11.92038 18.864548 -0.69090927 0
-11.600191 19.337362 -0.62555408 0
-0.77836442 -14.951702 -0.96589243 0
-1.1239035 -14.919416 -1.0185478 0
-1.4601424 -14.801013 -1.0569338 0
-1.7563879 -14.41016 -1.0467068 0
-2.0361423 -14.017169 -1.0340471 0
1.3392884 -11.408614 -0.37899405 0
0.01745677 -11.580512 -0.61611223 0
-0.51959395 -11.587736 -0.70629251 0
-0.24969697 -11.557965 -0.65579283 0
1.067215 -11.31956 -0.40345135 0
0.28253007 -11.34852 -0.53078508 0
0.8021729 -11.267226 -0.43431833 0
0.54079127 -11.236899 -0.46939775 0
-2.1545906 -11.538755 -0.98644662 0
-2.3751948 -11.271218 -0.97920376 0
-2.5894423 -11.01813 -0.97414374 0
-2.7980597 -10.77774 -0.97104955 0
-3.0016632 -10.548473 -0.96972269 0
-2.8334835 -8.6238518 -0.84374356 0
-3.0084693 -8.480545 -0.85214245 0
-3.1705673 -8.3139248 -0.85382348 0
-2.6443398 -7.5926156 -0.81941646 0
-2.4507895 -7.6156125 -0.7813592 0
-3.0451765 -7.0938573 -0.80004132 0
-3.1962116 -6.9838576 -0.81178439 0
-3.3472617 -6.8768387 -0.82494926 0
-3.500504 -6.7759519 -0.84074974 0
-2.6753614 -6.3385015 -0.7402178 0
-3.0631323 -6.0186815 -0.76136708 0
-3.248688 -6.0157623 -0.80982465 0
-3.3494334 -5.864646 -0.8009972 0
-3.3923533 -5.6298966 -0.75748324 0
-3.5537257 -5.585043 -0.79179019 0
-3.6134303 -5.3926463 -0.76432914 0
-3.1479545 -5.012805 -0.71987408 0
-3.8268416 -5.1547394 -0.77188915 0
-3.3368444 -4.7847328 -0.71924853 0
-3.3848035 -4.6152658 -0.69212449 0
-3.5182757 -4.5573163 -0.71964043 0
-3.5590539 -4.3890543 -0.69211483 0
-3.5962133 -4.2238908 -0.66493875 0
-3.7615566 -4.1996884 -0.71294832 0
-3.2814054 -4.0859537 -0.69006246 0
-3.792604 -4.034668 -0.68533683 0
-3.3176966 -3.9336414 -0.66305345 0
-3.4624431 -3.9015074 -0.70489901 0
-3.4930623 -3.749608 -0.67762268 0
-3.5209799 -3.6007924 -0.65094686 0
-3.1063709 -3.5410392 -0.63648319 0
-3.5464604 -3.4550889 -0.62493551 0
-3.2596021 -3.3634841 -0.64609385 0
-3.5697689 -3.3125112 -0.59965158 0
-3.2849813 -3.2285237 -0.62046069 0
-3.7121253 -3.2724285 -0.64259416 0
-3.4114027 -3.185688 -0.6583333 0
-3.7318251 -3.1311409 -0.61780453 0
-3.4329638 -3.0519962 -0.63315588 0
-3.4529269 -2.921237 -0.608877 0
